-12.747 132.756 733.848
-44.634 135.047 727.767
-87.149 161.985 727.206
-52.336 144.270 724.224
-63.234 147.813 731.390
-46.405 133.212 731.310
-51.719 143.655 724.224
-44.634 134.527 728.480
-36.662 126.245 740.167
-36.662 126.556 739.369
-4.776 136.807 734.852
-21.877 137.185 724.224
-34.005 128.013 735.738
-39.319 136.334 724.224
-4.776 137.185 734.179
-45.519 132.886 731.310
-63.162 147.813 731.310
-14.519 131.032 734.852
-21.605 136.413 725.109
-34.005 128.327 735.131
-17.494 141.613 721.567
-53.158 145.156 724.224
-21.605 137.185 724.307
-45.519 134.527 728.931
-4.105 137.185 734.852
-35.776 126.205 740.167
-13.633 131.503 734.852
-53.491 144.443 725.109
-17.176 141.732 721.567
-13.633 131.870 734.352
-52.605 144.556 724.224
-63.609 148.699 731.310
-35.776 128.784 734.852
-21.605 137.268 724.224
-53.491 145.156 724.534
-6.942 134.527 736.624
-17.176 142.499 720.938
-3.890 137.307 734.852
-31.348 132.596 728.652
-12.995 131.870 734.852
-34.891 128.633 734.852
-53.491 144.270 725.245
-64.120 148.196 732.195
-7.433 134.243 736.624
-43.748 134.741 727.767
-63.234 147.957 731.310
-31.348 132.756 728.451
-45.540 130.984 733.967
-64.120 148.699 731.891
-46.405 131.870 733.203
-7.433 134.527 736.154
-16.290 142.092 721.567
-45.519 130.984 733.958
-39.319 125.453 741.938
-64.120 147.813 732.425
-12.747 132.014 734.852
-43.748 134.527 728.074
-34.005 128.476 734.852
-81.931 157.556 722.452
-30.462 132.514 728.652
-38.434 137.851 722.452
-24.262 134.527 726.528
-16.290 142.499 721.242
-38.434 125.483 741.938
-44.634 130.984 733.605
-30.462 132.756 728.357
-38.434 138.070 722.253
-81.834 157.282 722.452
-42.966 134.527 727.767
-53.049 141.613 726.881
-35.776 127.816 736.624
-23.376 134.527 726.774
-12.602 132.756 733.967
-39.319 125.670 741.396
-81.834 157.556 722.318
-31.374 131.870 729.538
-38.434 125.670 741.501
-53.491 142.090 726.881
-53.491 142.499 726.591
-17.176 141.613 721.660
-37.548 137.677 722.452
-34.891 127.686 736.624
-31.348 131.867 729.538
-52.605 141.613 726.523
-3.490 138.070 733.967
-64.081 145.156 733.967
-43.748 130.984 733.295
-31.348 131.870 729.534
-37.548 138.070 722.073
-23.038 134.527 726.881
-37.548 125.509 741.938
-11.862 132.578 734.852
-64.120 145.244 733.967
-16.290 141.613 721.942
-7.433 133.702 737.510
-11.862 132.756 734.607
-64.120 146.042 733.478
-37.548 125.670 741.560
-22.490 134.669 726.881
-34.005 127.541 736.624
-30.462 131.772 729.538
-53.491 141.613 727.220
-6.547 134.215 737.510
-3.004 137.883 734.852
-11.586 132.756 734.852
-30.462 131.870 729.418
-6.547 134.527 736.995
-3.004 138.070 734.532
-82.207 158.442 722.452
-64.120 145.156 734.022
-36.662 137.546 722.452
-21.605 134.912 726.881
-15.405 142.498 721.567
-5.998 134.527 737.510
-33.147 128.327 734.852
-81.834 158.442 721.973
-2.741 138.070 734.852
-36.662 125.513 741.938
-36.662 138.070 721.920
-15.405 142.499 721.565
-21.605 135.413 726.267
-33.119 128.323 734.852
-36.662 125.670 741.563
-6.597 133.642 738.395
-11.862 133.205 733.967
-29.576 132.448 728.652
-15.402 142.499 721.567
-11.862 133.642 733.319
-82.440 159.328 722.452
-7.433 133.124 738.395
-35.776 137.448 722.452
-33.119 127.849 735.738
-22.490 134.527 727.060
-29.576 132.756 728.285
-7.433 133.642 737.611
-35.776 125.493 741.938
-81.834 159.328 721.717
-11.145 133.642 733.967
-35.776 138.070 721.792
-35.776 125.670 741.497
-5.662 138.467 731.310
-21.605 134.527 727.355
-6.547 133.670 738.395
-15.405 143.385 720.866
-28.690 132.409 728.652
-10.976 133.743 733.967
-32.233 128.177 734.852
-39.319 125.812 741.053
-55.554 146.928 725.109
-14.519 142.998 721.567
-28.690 132.756 728.246
-39.090 136.299 724.224
-5.662 134.179 738.395
-38.434 125.866 741.053
-5.662 134.527 737.822
-14.519 143.385 721.280
-38.434 136.210 724.224
-10.976 133.153 734.852
-32.233 127.688 735.738
-4.907 138.956 731.310
-55.262 146.565 725.109
-56.573 142.499 728.652
-10.976 133.642 734.126
-49.948 134.527 731.760
-29.576 131.695 729.538
-82.193 156.671 723.338
-29.576 131.870 729.327
-38.434 136.299 724.114
-55.262 146.928 724.813
-5.037 134.527 738.395
-37.548 125.890 741.053
-4.776 138.392 732.195
-56.148 142.054 728.652
-15.405 141.613 722.253
-81.834 156.031 723.338
-33.422 127.442 736.624
-4.776 138.956 731.422
-81.834 156.671 722.807
-33.119 127.442 736.519
-56.148 142.499 728.414
-28.690 131.650 729.538
-37.548 136.118 724.224
-32.233 127.442 736.211
-10.607 134.527 733.081
-82.566 157.556 723.338
-36.662 125.888 741.053
-55.777 146.042 725.995
-14.859 141.613 722.452
-55.704 141.613 728.652
-41.458 133.642 728.652
-55.262 145.388 725.995
-28.690 131.870 729.276
-37.548 136.299 723.992
-55.262 146.042 725.520
-3.908 138.956 732.195
-14.519 141.799 722.452
-35.776 125.854 741.053
-55.262 141.613 728.402
-82.751 156.671 724.224
-14.519 142.499 721.936
-41.091 133.582 728.652
-82.720 156.614 724.224
-82.720 156.671 724.173
-4.776 139.042 731.310
-41.091 133.642 728.550
-55.262 142.499 727.854
-56.430 146.928 725.995
-31.348 133.298 727.767
-56.148 146.538 725.995
-56.148 146.928 725.715
-82.144 155.785 724.224
-36.662 136.052 724.224
-81.834 155.785 723.647
-57.034 143.002 728.652
-42.862 134.503 727.767
-34.891 127.442 737.098
-30.462 133.233 727.767
-36.662 136.299 723.902
-3.890 139.685 731.310
-57.034 143.385 728.471
-20.719 137.547 724.224
-54.843 146.042 725.109
-10.090 134.281 733.967
-83.177 157.556 724.224
-3.890 138.968 732.195
-10.090 134.527 733.565
-34.005 127.442 736.821
-82.720 157.556 723.564
-21.605 138.070 723.452
-54.377 145.483 725.109
-56.148 143.385 727.912
-35.776 136.004 724.224
-42.862 133.913 728.652
-29.576 133.185 727.767
-55.262 142.643 727.767
-9.672 134.527 733.967
-20.719 138.070 723.720
-54.377 146.042 724.660
-3.890 138.353 733.081
-35.776 136.299 723.834
-54.096 145.156 725.109
-3.890 138.956 732.211
-14.519 141.613 722.585
-41.976 134.305 727.767
-28.690 133.159 727.767
-46.695 129.213 736.624
-10.213 133.642 734.852
-53.927 146.042 724.224
-53.491 145.529 724.224
-41.976 133.732 728.652
-19.833 137.805 724.224
-38.434 136.979 723.338
-57.034 141.613 729.364
-46.405 129.085 736.624
-83.848 159.328 724.224
-38.434 137.185 723.117
-19.833 138.070 723.967
-10.090 133.716 734.852
-46.405 129.213 736.483
-57.034 142.499 728.899
-41.091 134.127 727.767
-54.698 146.928 724.224
-83.606 158.648 724.224
-37.548 136.854 723.338
-31.348 128.040 734.852
-54.377 146.557 724.224
-37.548 137.185 722.967
-56.148 141.613 728.886
-31.348 131.125 730.424
-83.606 159.328 723.919
-54.377 145.156 725.366
-9.204 134.262 734.852
-31.348 127.546 735.738
-9.204 134.527 734.421
-42.862 133.366 729.538
-48.459 130.984 735.738
-18.947 138.041 724.224
-34.891 137.380 722.452
-30.462 131.021 730.424
-30.535 127.442 735.738
-82.864 158.442 723.338
-55.131 142.499 727.767
-36.662 136.763 723.338
-82.720 158.003 723.338
-48.177 130.808 735.738
-41.976 133.191 729.538
-18.947 138.070 724.195
-82.720 158.442 723.142
-8.765 134.527 734.852
-42.862 133.642 729.089
-48.177 130.984 735.515
-56.229 147.813 725.109
-41.976 133.642 728.804
-30.462 127.921 734.852
-36.662 137.185 722.847
-54.377 141.728 727.767
-31.348 130.984 730.594
-30.462 127.442 735.723
-56.148 147.704 725.109
-18.836 138.070 724.224
-83.141 159.328 723.338
-54.377 141.613 727.840
-56.148 147.813 725.017
-82.720 159.328 722.808
-35.776 136.699 723.338
-30.462 130.984 730.467
-41.091 133.034 729.538
-31.348 127.442 735.938
-35.776 137.185 722.753
-48.238 130.099 736.624
-54.260 141.613 727.767
-3.689 139.842 731.310
-55.434 147.813 724.224
-55.262 147.605 724.224
-48.177 130.058 736.624
-83.530 158.442 724.224
-48.177 130.099 736.577
-30.097 130.984 730.424
-29.576 130.984 730.371
-3.004 139.634 732.195
-3.004 139.842 731.950
-56.174 148.699 724.224
-29.576 127.840 734.852
-40.205 133.454 728.652
-57.034 144.270 728.028
-49.469 130.984 736.624
-28.690 130.984 730.313
-2.760 139.842 732.195
-49.062 130.682 736.624
-49.062 130.984 736.248
-29.576 127.442 735.576
-40.205 133.642 728.329
-56.908 148.699 725.109
-56.148 148.668 724.224
-3.023 138.956 733.081
-80.974 156.671 721.567
-41.105 139.842 721.567
-21.605 139.184 722.452
-80.948 156.604 721.567
-28.690 127.802 734.852
-41.091 139.835 721.567
-57.034 147.746 725.995
-39.319 133.342 728.652
-3.004 138.970 733.081
-57.034 147.813 725.948
-80.948 156.671 721.529
-28.690 127.442 735.508
-13.926 143.385 721.567
-46.895 130.099 735.738
-41.091 139.842 721.562
-20.719 139.502 722.452
-39.319 133.642 728.142
-46.405 129.880 735.738
-80.554 155.785 721.567
-21.605 139.842 721.885
-57.034 148.699 725.256
-46.405 130.099 735.481
-2.119 139.696 733.081
-40.205 133.980 727.767
-2.119 139.842 732.890
-41.809 138.956 722.452
-20.719 139.842 722.160
-13.633 142.344 722.452
-41.091 138.657 722.452
-47.291 130.291 735.738
-41.091 138.956 722.223
-80.063 155.785 720.882
-47.291 130.984 734.896
-39.319 133.863 727.767
-13.633 142.499 722.345
-20.740 127.442 737.510
-46.405 130.620 734.852
-81.276 157.556 721.567
-1.958 139.842 733.081
-19.833 139.780 722.452
-21.605 127.275 737.510
-13.398 142.499 722.452
-42.862 139.466 722.452
-56.784 146.042 726.881
-47.291 129.515 736.624
-80.948 157.556 721.129
-56.148 145.183 726.881
-40.205 132.898 729.538
-47.291 130.099 735.966
-19.833 139.842 722.399
-56.148 146.042 726.337
-35.776 130.469 732.195
-21.605 127.442 737.216
-41.976 139.031 722.452
-13.633 143.385 721.708
-3.004 140.445 731.310
-34.891 130.954 731.310
-42.862 139.842 722.193
-57.034 146.374 726.881
-81.127 155.785 722.452
-12.747 142.975 722.452
-39.319 132.779 729.538
-2.713 140.727 731.310
-57.034 146.928 726.544
-41.976 139.842 721.863
-12.747 143.385 722.183
-81.594 156.671 722.452
-20.719 126.925 738.395
-19.614 139.842 722.452
-2.119 140.444 732.195
-20.719 127.442 737.516
-80.948 155.785 722.170
-34.891 130.320 732.195
-2.119 140.727 731.899
-57.034 146.042 727.075
-35.776 130.984 731.458
-49.062 129.213 738.395
-42.699 132.756 730.424
-40.205 139.459 721.567
-27.805 127.808 734.852
-21.605 140.221 721.567
-48.177 128.601 738.395
-19.833 127.073 738.395
-12.257 143.385 722.452
-41.976 132.625 730.424
-34.005 130.821 731.310
-40.205 139.842 721.288
-41.976 132.756 730.218
-20.719 140.539 721.567
-34.891 138.070 721.690
-19.833 127.442 737.786
-27.805 127.442 735.518
-48.177 129.213 737.586
-1.843 140.727 732.195
-21.605 140.727 721.158
-34.005 130.175 732.195
-81.513 158.442 721.567
-39.319 139.128 721.567
-41.091 132.473 730.424
-20.719 140.727 721.413
-13.633 143.587 721.567
-48.081 129.213 737.510
-1.233 141.416 732.195
-41.091 132.756 729.983
-34.005 137.339 722.452
-26.919 127.859 734.852
-80.948 158.442 720.861
-1.233 141.613 732.021
-39.319 139.842 721.013
-47.291 128.748 737.510
-13.633 144.270 721.081
-20.147 140.727 721.567
-47.291 129.213 736.956
-18.947 127.221 738.395
-35.776 129.896 733.081
-34.005 138.070 721.617
-26.919 127.442 735.607
-1.075 141.613 732.195
-40.205 138.334 722.452
-18.947 127.442 738.049
-40.205 138.956 721.951
-19.833 140.825 721.567
-12.776 144.270 721.567
-41.976 132.022 731.310
-21.605 134.191 727.767
-81.709 159.328 721.567
-34.891 129.744 733.081
-42.862 132.756 730.473
-46.405 128.367 737.510
-1.233 140.548 733.081
-35.776 130.099 732.759
-1.233 140.727 732.876
-34.891 130.099 732.533
-39.319 138.956 721.702
-26.153 127.442 735.738
-32.765 138.070 721.567
-18.062 127.369 738.395
-20.719 134.426 727.767
-19.833 140.727 721.646
-64.559 150.471 731.310
-47.674 128.327 738.395
-1.061 140.727 733.081
-41.091 131.876 731.310
-32.233 138.067 721.567
-12.747 144.295 721.567
-18.062 127.442 738.287
-20.719 134.527 727.642
-64.120 149.671 731.310
-47.291 128.157 738.395
-26.033 127.954 734.852
-32.233 138.070 721.562
-34.005 129.577 733.081
-47.291 128.327 738.098
-12.747 145.156 720.971
-34.005 130.099 732.310
-0.347 141.585 733.081
-64.120 150.471 730.844
-42.764 140.727 721.567
-20.323 134.527 727.767
-26.033 127.455 735.738
-41.976 140.280 721.567
-18.947 141.108 721.567
-0.347 141.613 733.055
-40.205 132.327 730.424
-40.205 132.756 729.766
-41.976 140.727 721.282
-33.119 137.320 722.452
-12.747 144.270 721.583
-46.405 127.824 738.395
-33.119 138.070 721.575
-46.405 128.327 737.568
-18.062 141.410 721.567
-33.522 130.099 732.195
-3.004 138.405 733.967
-64.234 151.356 730.424
-25.148 128.082 734.852
-64.120 151.180 730.424
-39.319 132.191 730.424
-33.119 130.034 732.195
-3.004 138.956 733.102
-39.319 132.756 729.574
-18.947 140.035 722.452
-64.120 151.356 730.318
-41.091 140.727 720.946
-32.233 137.320 722.452
-18.947 140.727 721.873
-33.119 130.099 732.101
-25.148 127.576 735.738
-17.652 127.442 738.395
-81.902 160.214 721.567
-2.275 138.956 733.967
-11.862 145.132 721.567
-41.052 131.870 731.310
-81.834 159.918 721.567
-49.262 130.099 737.510
-42.862 140.784 721.567
-64.950 152.242 730.424
-57.367 141.613 729.538
-18.062 140.323 722.452
-11.862 145.156 721.551
-18.062 140.727 722.122
-49.062 129.945 737.510
-64.120 152.242 729.608
-11.838 145.156 721.567
-57.034 141.270 729.538
-21.605 138.196 723.338
-2.119 139.082 733.967
-49.062 130.099 737.325
-40.205 131.737 731.310
-42.862 141.613 721.033
-34.891 135.974 724.224
-81.834 160.214 721.491
-32.233 129.890 732.195
-26.033 127.442 735.763
-20.719 138.495 723.338
-40.205 131.870 731.107
-11.862 143.763 722.452
-21.605 138.956 722.654
-34.891 136.299 723.792
-48.177 129.279 737.510
-20.719 138.956 722.933
-65.130 151.356 731.310
-11.862 144.270 722.136
-32.233 130.099 731.896
-41.976 141.613 720.690
-65.005 151.176 731.310
-2.119 138.538 734.852
-65.005 151.356 731.181
-25.148 127.442 735.980
-82.120 161.099 721.567
-20.719 126.465 739.281
-33.119 130.682 731.310
-49.948 130.648 737.510
-19.833 138.764 723.338
-11.371 144.270 722.452
-57.193 139.842 730.424
-34.005 135.965 724.224
-32.233 130.536 731.310
-42.862 140.727 721.600
-20.719 126.556 739.094
-81.834 161.099 721.250
-49.948 130.984 737.084
-19.833 138.956 723.171
-39.319 131.602 731.310
-65.837 152.242 731.310
-34.005 136.299 723.776
-2.119 138.956 734.167
-57.034 139.702 730.424
-39.319 131.870 730.904
-65.005 152.242 730.477
-10.976 144.678 722.452
-19.953 126.556 739.281
-10.976 145.156 722.145
-57.034 139.842 730.340
-33.119 129.408 733.081
-82.663 160.214 722.452
-49.948 129.935 738.395
-1.238 139.842 733.967
-21.390 132.756 729.538
-42.862 132.787 730.424
-64.368 148.699 732.195
-19.833 126.569 739.281
-33.119 135.966 724.224
-19.132 138.956 723.338
-57.624 138.956 731.310
-13.633 141.613 722.965
-49.062 129.213 738.395
-21.605 132.697 729.538
-32.233 129.254 733.081
-82.915 161.099 722.452
-49.948 130.099 738.190
-1.592 138.956 734.852
-33.119 136.299 723.776
-57.034 138.503 731.310
-64.828 149.585 732.195
-82.720 160.430 722.452
-24.262 128.226 734.852
-57.034 138.956 730.931
-12.823 141.613 723.338
-18.947 139.007 723.338
-64.120 149.585 731.360
-18.947 139.842 722.617
-21.605 132.756 729.468
-82.720 161.099 722.233
-20.719 126.023 740.167
-42.862 138.304 723.338
-32.233 135.969 724.224
-1.233 139.253 734.852
-12.747 141.665 723.338
-42.862 138.956 722.828
-24.262 127.728 735.738
-1.233 139.842 733.973
-12.747 142.499 722.769
-35.134 129.213 733.967
-32.233 136.299 723.781
-41.976 138.956 722.508
-58.555 139.842 731.310
-18.062 139.274 723.338
-65.322 150.471 732.195
-0.573 139.842 734.852
-19.833 126.123 740.167
-23.667 128.327 734.852
-34.891 129.172 733.967
-19.833 126.556 739.308
-83.701 161.099 723.338
-34.891 129.213 733.899
-12.747 141.613 723.373
-39.139 132.756 729.538
-65.005 149.912 732.195
-18.062 139.842 722.857
-57.920 139.207 731.310
-20.877 133.642 728.652
-83.606 160.819 723.338
-34.891 136.659 723.338
-21.605 133.452 728.652
-23.376 127.897 735.738
-34.891 137.185 722.685
-83.606 161.099 723.230
-21.605 133.642 728.423
-34.005 129.013 733.967
-23.376 128.327 734.950
-18.947 138.956 723.382
-45.519 128.753 736.624
-57.920 139.842 730.858
-38.434 132.669 729.538
-65.005 150.471 731.809
-11.862 142.362 723.338
-1.233 139.846 733.967
-34.005 136.639 723.338
-20.719 133.682 728.652
-18.947 126.669 739.281
-34.005 129.213 733.640
-34.005 137.185 722.643
-45.519 129.213 736.091
-18.062 138.293 724.224
-38.434 132.756 729.401
-23.376 128.380 734.852
-84.159 160.214 724.224
-11.862 142.499 723.251
-35.776 129.213 734.141
-18.062 138.956 723.616
-0.360 140.727 733.967
-83.606 160.214 723.566
-38.776 138.956 721.567
-65.065 148.699 733.081
-38.434 138.858 721.567
-18.062 126.777 739.281
-19.833 133.914 728.652
-11.708 142.499 723.338
-24.262 127.442 736.251
-19.833 134.527 727.919
-44.634 128.520 736.624
-37.548 132.563 729.538
-59.303 140.727 731.310
-0.347 140.742 733.967
-38.434 138.956 721.487
-33.119 136.635 723.338
-65.509 149.585 733.081
-58.805 140.122 731.310
-37.548 132.756 729.241
-65.005 148.699 733.001
-44.634 129.213 735.786
-65.005 149.585 732.419
-33.119 137.185 722.624
-18.947 126.210 740.167
-20.719 132.944 729.538
-84.472 161.099 724.224
-18.947 126.556 739.489
-37.548 138.633 721.567
-33.119 128.844 733.967
-32.233 136.640 723.338
-23.376 127.442 736.551
-20.719 133.642 728.702
-33.119 129.213 733.377
-32.233 137.185 722.625
-37.548 138.956 721.294
-11.862 143.385 722.685
-0.347 140.062 734.852
-58.805 140.727 730.919
-36.662 132.457 729.538
-65.891 150.286 733.081
-44.465 129.213 735.738
-0.347 140.727 733.984
-59.691 141.248 731.310
-65.891 150.471 732.936
-36.662 132.756 729.094
-83.412 160.214 723.338
-18.062 126.290 740.167
-43.748 129.054 735.738
-19.833 133.194 729.538
-10.976 143.213 723.338
-18.062 126.556 739.662
-82.720 160.214 722.521
-19.833 133.642 728.987
-32.233 128.680 733.967
-59.691 141.613 731.095
-38.434 139.842 720.769
-22.490 128.082 735.738
-32.233 129.213 733.143
-65.891 151.353 732.195
-10.976 143.385 723.239
-17.176 140.637 722.452
-43.748 129.213 735.544
-38.434 133.236 728.652
-65.891 151.356 732.192
-58.805 141.613 730.431
-33.119 128.327 734.844
-22.490 128.327 735.276
-32.233 128.327 734.572
-21.605 125.471 741.053
-17.176 140.727 722.381
-0.326 141.613 733.081
-11.862 141.613 723.834
-38.434 133.642 727.979
-18.947 134.166 728.652
-58.071 140.727 730.424
-84.028 161.985 723.338
-65.891 152.242 731.365
-57.920 140.558 730.424
-42.862 128.893 735.738
-31.751 138.070 721.567
-20.719 125.583 741.053
-16.928 140.727 722.452
-36.662 138.449 721.567
-21.605 128.274 735.738
-83.606 161.985 722.874
-57.920 140.727 730.331
-37.548 133.138 728.652
-42.862 129.213 735.333
-18.947 134.527 728.214
-35.776 129.319 733.967
-21.605 125.670 740.630
-36.662 138.956 721.115
-16.290 140.967 722.452
-20.719 125.670 740.878
-21.605 128.327 735.637
-11.187 141.613 724.224
-37.548 133.642 727.845
-31.348 137.331 722.452
-57.034 140.727 729.822
-65.721 148.699 733.967
0.338 141.613 733.967
-31.348 138.070 721.575
-19.988 125.670 741.053
-35.776 138.301 721.567
-43.510 128.327 736.624
-10.976 141.802 724.224
-18.062 134.421 728.652
-22.490 128.561 734.852
-10.976 142.499 723.771
-65.891 149.049 733.967
-38.434 133.766 727.767
-58.794 141.613 730.424
-65.891 149.585 733.596
-15.405 141.348 722.452
-57.920 141.613 729.856
-42.862 128.247 736.624
-35.776 138.956 720.954
-18.062 134.527 728.521
-42.862 128.327 736.502
-30.462 137.351 722.452
-21.605 128.769 734.852
-37.548 133.688 727.767
-21.605 125.057 741.938
-65.891 148.699 734.209
-43.748 128.362 736.624
-30.462 138.070 721.613
-18.947 133.447 729.538
-23.173 127.442 736.624
-18.947 133.642 729.294
-20.719 125.159 741.938
-31.968 129.213 733.081
-17.176 139.565 723.338
-10.976 144.270 722.702
0.260 140.727 734.852
-17.176 139.842 723.110
-22.490 127.582 736.624
-84.810 161.985 724.224
-36.920 133.642 727.767
-18.259 133.642 729.538
-84.491 161.152 724.224
-31.348 129.122 733.081
-45.519 129.524 735.738
-84.491 161.985 723.866
-19.833 125.275 741.938
-16.341 139.842 723.338
-57.598 138.070 732.195
-19.833 125.670 741.089
-31.348 129.213 732.945
-21.605 127.777 736.624
-36.662 133.624 727.767
-45.519 130.099 735.064
0.539 141.079 734.852
-57.034 137.701 732.195
-29.576 137.382 722.452
-18.062 133.698 729.538
0.539 141.613 734.264
-57.034 138.070 731.740
-36.662 133.050 728.652
-29.576 138.070 721.672
-44.980 130.099 734.852
-17.176 138.565 724.224
-30.462 129.005 733.081
-17.176 138.956 723.867
-60.743 150.471 727.767
0.914 141.613 734.852
-18.947 125.382 741.938
-44.634 130.004 734.852
-57.219 137.185 733.081
-30.462 129.213 732.772
-60.577 150.223 727.767
-18.947 125.670 741.302
-57.034 137.081 733.081
-44.634 129.254 735.738
-21.605 131.945 730.424
-28.690 137.430 722.452
-57.034 137.185 732.929
-60.577 150.471 727.616
-16.290 138.833 724.224
-10.503 145.156 722.452
-16.290 138.956 724.113
-45.519 130.269 734.852
-28.690 138.070 721.747
-22.490 127.442 736.879
-83.217 161.985 722.452
-58.576 138.070 733.081
-38.434 132.068 730.424
-57.920 137.619 733.081
-20.719 132.199 730.424
-29.576 128.917 733.081
-18.062 125.479 741.938
-57.920 138.070 732.487
-20.719 132.756 729.765
-57.567 149.585 725.109
-16.290 139.842 723.352
-57.034 148.866 725.109
-18.062 125.670 741.455
-42.327 136.299 725.109
-29.576 129.213 732.638
-6.116 141.613 727.767
-57.034 149.585 724.379
-10.814 143.385 723.338
-37.548 131.955 730.424
-43.748 129.784 734.852
-41.976 136.197 725.109
-19.833 132.459 730.424
-41.976 136.299 724.987
-5.662 142.111 727.767
-19.833 132.756 730.066
-15.889 138.956 724.224
-31.348 135.966 724.224
-19.833 125.687 741.053
-28.690 128.867 733.081
-58.721 138.956 732.195
-10.253 142.499 724.224
-58.280 150.471 725.109
-42.862 129.597 734.852
-57.920 138.303 732.195
-5.662 141.613 728.137
-57.920 150.043 725.109
-57.920 138.956 731.516
-38.434 131.476 731.310
-31.348 136.299 723.783
-28.690 129.213 732.557
-41.091 135.963 725.109
-57.920 150.471 724.546
-15.405 139.117 724.224
-38.434 131.870 730.722
-41.091 136.299 724.694
-21.605 131.208 731.310
-10.090 142.663 724.224
-58.805 139.028 732.195
-10.090 143.385 723.793
-15.405 139.842 723.610
-58.805 139.842 731.503
-57.740 150.471 724.224
-18.947 125.785 741.053
-31.348 129.749 732.195
-30.462 135.958 724.224
-57.034 149.702 724.224
-46.285 128.327 737.510
-20.719 131.465 731.310
-37.548 131.352 731.310
-9.428 143.385 724.224
-21.605 131.870 730.514
-37.548 131.870 730.552
-58.805 138.234 733.081
-5.009 141.613 728.652
-45.519 128.109 737.510
-58.805 138.956 732.270
-30.462 136.299 723.780
-18.062 125.845 741.053
-83.775 157.556 725.109
-20.719 131.870 730.817
-41.579 135.413 725.995
-31.348 130.099 731.707
-58.298 149.585 725.995
-45.519 128.327 737.176
-5.326 142.499 727.767
-14.519 139.470 724.224
-36.877 131.870 730.424
-10.090 144.158 723.338
-41.091 135.311 725.995
-57.920 149.016 725.995
-4.776 141.859 728.652
-14.519 139.842 723.917
-57.920 149.585 725.557
-4.776 142.499 728.200
-36.662 131.843 730.424
-19.833 131.727 731.310
-36.662 131.870 730.382
-10.090 144.270 723.272
-41.091 135.413 725.845
-30.462 129.622 732.195
-29.576 135.947 724.224
-84.186 158.442 725.109
-19.833 131.870 731.131
-64.221 146.928 733.081
-4.192 142.499 728.652
-16.290 139.859 723.338
-44.634 127.915 737.510
-57.706 148.699 725.995
-9.982 144.270 723.338
-29.576 136.299 723.775
-83.606 157.556 724.853
-17.176 126.922 739.281
-30.462 130.099 731.549
-44.634 128.327 736.885
-17.176 127.442 738.534
-83.606 158.442 724.325
-16.290 140.727 722.640
-4.776 143.132 727.767
-36.662 131.223 731.310
-58.805 150.266 725.995
-10.090 145.156 722.713
-31.348 130.400 731.310
-28.690 135.950 724.224
-42.862 135.747 725.995
-64.643 147.813 733.081
-58.805 150.471 725.795
-18.947 132.716 730.424
-30.462 130.285 731.310
-16.290 127.139 739.281
-18.947 132.756 730.375
-4.562 143.385 727.767
-9.204 145.100 723.338
-65.005 148.574 733.081
-84.540 159.328 725.109
-28.690 136.299 723.790
-41.976 135.504 725.995
-45.519 127.560 738.395
-84.491 159.207 725.109
-42.862 136.299 725.307
-16.290 127.442 738.850
-84.491 159.328 725.047
-18.808 132.756 730.424
-56.375 138.070 731.310
-3.890 142.834 728.652
-9.204 145.156 723.302
-15.405 140.188 723.338
-3.890 143.385 728.289
-15.405 140.727 722.926
-45.015 127.442 738.395
-59.185 149.585 726.881
-31.348 136.645 723.338
-64.488 146.042 733.967
-29.576 129.524 732.195
3.536 146.042 734.852
-84.826 158.442 725.995
-19.346 131.870 731.310
-40.205 135.773 725.109
-31.348 137.185 722.638
-29.576 130.099 731.435
-17.176 126.405 740.167
-40.205 136.299 724.453
-64.898 146.928 733.967
-84.491 157.763 725.995
-14.519 140.591 723.338
-9.204 143.650 724.224
-56.148 137.939 731.310
-44.634 127.442 738.260
-4.776 141.613 728.833
-28.690 129.465 732.195
-18.947 131.988 731.310
-17.176 126.556 739.884
-30.462 136.649 723.338
-84.491 158.442 725.536
-65.115 146.042 734.852
-39.319 135.629 725.109
-58.805 148.992 726.881
-14.519 140.727 723.239
-9.204 144.270 723.857
-56.148 138.070 731.177
-42.862 130.948 733.081
-58.805 149.585 726.520
3.196 145.488 734.852
-16.445 126.556 740.167
-65.005 145.809 734.852
-39.319 136.299 724.266
-65.005 146.042 734.695
-18.062 132.268 731.310
3.196 146.042 734.399
-28.690 130.099 731.369
-64.687 145.156 734.852
-30.462 137.185 722.659
-84.378 157.556 725.995
-55.262 137.472 731.310
-9.152 145.156 723.338
-16.290 126.596 740.167
-18.062 132.756 730.701
-3.890 141.613 729.535
-43.748 127.773 737.510
-59.790 150.471 726.881
-55.262 138.070 730.721
-59.691 150.329 726.881
-41.976 130.780 733.081
3.361 146.928 733.967
-85.244 159.328 725.995
3.196 146.634 733.967
-40.205 135.146 725.995
-29.576 130.198 731.310
-43.748 128.327 736.674
-8.667 144.270 724.224
4.082 146.916 734.852
-29.576 136.655 723.338
-40.205 135.413 725.604
-15.405 127.435 739.281
-41.976 130.984 732.799
-3.890 142.499 728.882
-54.562 138.070 730.424
-59.691 150.471 726.783
4.082 146.928 734.843
-29.576 137.185 722.688
-15.405 127.442 739.272
-18.062 132.981 730.424
-15.388 127.442 739.281
4.088 146.928 734.852
-10.976 136.565 729.538
-28.690 136.680 723.338
-20.719 135.890 725.995
-58.970 150.471 725.995
-41.091 130.624 733.081
-15.405 126.880 740.167
-18.062 133.642 729.609
-39.319 135.011 725.995
-10.090 137.038 729.538
3.883 147.813 733.967
-41.091 130.984 732.581
-20.719 136.299 725.530
-8.319 144.673 724.224
-54.377 137.976 730.424
-42.862 127.668 737.510
-60.175 149.585 727.767
-14.519 127.243 740.167
-39.319 135.413 725.411
3.196 146.928 733.764
-84.979 157.556 726.881
-10.090 137.185 729.325
-28.690 137.185 722.734
-84.491 157.556 726.159
-54.377 138.070 730.348
-8.319 145.156 723.922
-59.691 148.785 727.767
-28.690 130.146 731.310
-3.890 144.178 727.767
-43.748 127.442 738.028
-40.205 130.486 733.081
-59.691 149.585 727.342
3.196 147.813 733.169
-9.814 137.185 729.538
-42.862 136.470 725.109
-17.687 134.527 728.652
-53.491 137.497 730.424
-42.862 127.442 737.871
-7.888 145.156 724.224
-40.205 130.984 732.380
-59.636 148.699 727.767
-53.491 138.070 729.927
-42.862 137.185 724.345
3.598 148.699 733.081
-84.895 160.214 725.109
-34.891 138.191 721.567
3.196 147.952 733.081
-17.176 133.972 729.538
-31.348 128.537 733.967
-21.354 128.327 735.738
-17.176 134.527 728.842
-34.891 138.956 720.819
-84.491 160.214 724.629
4.082 148.149 733.967
-10.090 137.669 728.652
-19.833 136.139 725.995
-54.661 137.185 731.310
-39.319 130.367 733.081
4.082 148.699 733.615
-58.805 148.699 727.052
-34.005 138.118 721.567
-19.833 136.299 725.814
-30.462 128.424 733.967
-85.251 161.099 725.109
-9.415 138.070 728.652
-84.491 161.099 724.246
-16.290 134.275 729.538
-31.348 128.327 734.329
-20.719 128.990 734.852
-34.005 138.956 720.717
-54.377 137.051 731.310
-49.807 131.870 735.738
-54.377 137.185 731.163
-11.862 146.042 720.933
-39.319 130.984 732.196
-49.062 131.373 735.738
-19.218 136.299 725.995
-9.204 137.532 729.538
-3.418 143.385 728.652
-30.462 128.327 734.135
-53.491 136.618 731.310
-58.619 148.699 726.881
-49.062 131.870 735.041
-42.862 135.116 726.881
-16.290 134.527 729.213
-9.204 138.070 728.820
-20.719 128.463 735.738
-10.976 146.006 721.567
-53.491 137.185 730.708
-48.846 131.870 734.852
-20.719 136.690 725.109
-57.920 148.699 726.219
4.414 148.699 733.967
-20.719 137.185 724.588
-3.886 141.613 729.538
-33.119 138.078 721.567
-41.976 134.891 726.881
-10.976 146.042 721.542
-42.862 135.413 726.453
-29.097 128.327 733.967
-41.976 135.413 726.126
-3.084 142.499 729.538
-19.833 136.947 725.109
-15.568 134.527 729.538
-19.833 129.209 734.852
-8.347 138.070 729.538
-39.793 129.213 734.852
4.082 147.813 734.188
-28.690 128.315 733.967
-49.948 132.545 734.852
-19.833 137.185 724.856
-3.004 142.596 729.538
-28.690 128.327 733.945
-41.091 134.699 726.881
-19.833 128.664 735.738
-39.319 129.178 734.852
-3.004 143.385 728.994
-49.948 131.962 735.738
4.658 147.813 734.852
-10.976 146.928 720.881
-39.319 129.213 734.799
-49.992 136.299 729.538
-49.062 131.997 734.852
-29.576 128.351 733.967
-42.862 134.527 727.729
-17.176 132.570 731.310
-55.047 149.585 721.567
-2.391 143.385 729.538
-41.976 134.527 727.423
-10.358 136.299 730.424
-29.576 128.327 734.008
4.967 148.277 734.852
-20.719 127.970 736.624
-41.091 134.527 727.145
4.967 148.699 734.544
-20.719 128.327 735.987
-10.976 135.974 730.424
-17.176 132.756 731.073
-54.377 149.041 721.567
-49.948 131.335 736.624
-18.947 137.173 725.109
-10.976 136.299 729.935
-41.874 130.099 733.967
-49.948 131.870 735.875
-18.947 137.185 725.097
-52.774 138.070 729.538
-54.377 149.585 720.753
-16.651 132.756 731.310
-41.091 129.978 733.967
-52.605 137.954 729.538
-41.091 130.099 733.796
-19.833 128.157 736.624
-18.902 137.185 725.109
-19.833 128.327 736.321
-3.812 144.270 727.767
-53.970 148.699 721.567
-40.205 134.546 726.881
-10.961 135.413 731.310
-52.605 138.070 729.439
-31.348 138.078 721.567
-3.004 143.908 728.652
-10.976 135.405 731.310
-3.004 144.270 728.423
-18.062 137.408 725.109
-53.491 148.699 721.065
-40.079 134.527 726.881
-10.976 135.413 731.297
-17.176 133.277 730.424
-18.062 138.070 724.436
-42.862 130.278 733.967
-39.319 134.527 726.718
-17.176 133.642 729.961
-19.818 129.213 734.852
-51.719 137.354 729.538
-2.733 144.270 728.652
-30.462 138.111 721.567
-55.262 149.749 721.567
-41.976 130.116 733.967
-40.205 134.527 726.910
-18.947 136.367 725.995
-51.719 138.070 728.861
-10.090 135.871 731.310
-50.543 134.527 732.195
-10.090 136.299 730.639
-18.947 128.880 735.738
-18.947 129.213 735.202
-16.290 133.587 730.424
-16.290 133.642 730.352
-3.092 145.156 727.767
-49.948 134.232 732.195
-10.938 146.042 721.567
-9.306 136.299 731.310
-50.119 137.185 728.652
-18.062 136.606 725.995
-54.753 148.699 722.452
-18.062 137.185 725.347
-41.976 129.446 734.852
-3.004 145.156 727.840
-42.862 130.099 734.208
-41.976 130.099 733.990
-18.062 129.107 735.738
-29.576 138.167 721.567
-55.262 149.173 722.452
-55.262 149.585 721.840
-10.090 146.828 721.567
-51.408 138.070 728.652
-16.290 132.889 731.310
-18.062 129.213 735.568
-50.834 137.661 728.652
-2.119 145.098 728.652
-54.377 148.699 722.016
-29.576 138.956 720.757
-51.651 134.527 733.081
-10.090 146.928 721.490
-20.719 135.158 726.881
-8.319 148.699 721.013
-10.090 136.439 730.424
-20.719 135.413 726.567
-50.834 138.070 728.258
-41.091 129.328 734.852
-2.119 145.156 728.614
-38.434 135.520 725.109
-19.001 128.327 736.624
-50.834 134.112 733.081
-50.146 138.070 727.767
-16.134 133.642 730.424
-28.690 138.244 721.567
-50.834 134.527 732.417
-9.972 146.928 721.567
-7.564 148.699 721.567
-2.119 143.771 729.538
-9.204 136.928 730.424
-19.833 135.389 726.881
-51.456 137.185 729.538
-18.947 128.338 736.624
-9.204 137.185 730.038
-15.405 133.913 730.424
-37.548 135.444 725.109
-28.690 138.956 720.860
-15.405 134.527 729.615
-2.119 144.270 729.205
-10.090 145.563 722.452
-50.834 136.800 729.538
-19.833 135.413 726.851
-48.607 128.327 739.281
-50.834 137.185 729.137
-10.090 146.042 722.133
-40.205 129.868 733.967
-7.433 148.785 721.567
-50.297 132.756 734.852
-18.062 128.532 736.624
-40.205 130.099 733.631
-48.177 128.103 739.281
-9.204 136.355 731.310
-38.434 134.904 725.995
-48.177 128.327 738.849
-2.076 145.156 728.652
-9.599 146.042 722.452
-15.405 133.249 731.310
-38.434 135.413 725.262
-56.933 149.585 724.224
-15.405 133.642 730.789
-39.319 129.777 733.967
-7.433 148.699 721.665
-19.833 134.653 727.767
-39.319 130.099 733.481
-28.690 130.891 730.424
-8.751 137.185 730.424
-52.847 136.299 731.310
-1.777 144.270 729.538
-9.204 146.429 722.452
-49.913 129.213 739.281
-49.062 128.597 739.281
-9.204 146.928 722.087
-18.947 129.435 734.852
-52.657 134.527 733.967
-37.548 134.824 725.995
-49.062 129.213 738.396
-52.605 136.181 731.310
-37.548 135.413 725.153
-27.805 130.881 730.424
-8.319 137.444 730.424
-19.736 135.413 726.881
-52.605 134.502 733.967
-8.319 138.070 729.563
-52.605 136.299 731.166
-40.205 129.244 734.852
-18.062 129.681 734.852
-1.233 145.051 729.538
-52.605 134.527 733.919
-27.805 130.984 730.301
-1.233 145.156 729.463
-8.669 146.928 722.452
-18.947 135.615 726.881
-49.463 128.327 740.167
-37.065 135.413 725.109
-18.947 136.299 726.074
-35.776 135.357 725.109
-7.433 138.001 730.424
-51.719 135.733 731.310
-49.062 128.094 740.167
-1.158 145.156 729.538
-36.662 135.392 725.109
-49.062 128.327 739.748
-36.662 135.413 725.079
-26.919 130.912 730.424
-7.433 138.070 730.329
-51.719 134.050 733.967
-51.719 136.299 730.623
-20.719 127.445 737.510
-35.776 135.413 725.027
-51.719 134.527 733.139
-34.891 135.334 725.109
-62.757 150.471 729.538
-18.062 135.856 726.881
-21.605 130.521 732.195
-34.891 135.413 724.993
-26.919 130.984 730.337
-6.547 149.364 721.567
-51.388 136.299 730.424
-10.090 147.813 720.719
-39.313 130.984 732.195
-48.177 127.647 740.167
-3.004 141.613 730.281
-50.834 136.005 730.424
-27.805 130.136 731.310
-20.719 130.775 732.195
-6.547 149.585 721.247
-34.005 135.324 725.109
-19.833 127.611 737.510
-34.005 135.413 724.980
-51.844 133.642 734.852
-36.662 134.768 725.995
-26.919 130.170 731.310
-6.197 149.585 721.567
-21.605 130.984 731.591
-38.434 130.865 732.195
-18.062 136.299 726.350
-50.834 136.299 730.084
-9.204 147.552 721.567
-38.434 130.984 732.018
-8.319 136.869 731.310
-35.776 134.735 725.995
-62.348 149.743 729.538
-3.004 142.499 729.607
-18.947 134.894 727.767
-37.548 130.741 732.195
-51.075 135.413 731.310
-18.947 135.413 727.129
-37.548 130.984 731.836
-9.204 147.813 721.329
-49.948 128.649 740.167
-62.348 150.471 729.166
-50.834 135.298 731.310
-2.843 141.613 730.424
-26.045 130.984 730.424
-51.719 133.573 734.852
-20.719 130.984 731.917
-5.662 149.931 721.567
-51.719 133.642 734.723
-34.891 134.712 725.995
-8.319 137.185 730.809
-18.062 135.141 727.767
-50.834 135.413 731.153
-60.747 148.699 728.652
-49.948 129.213 739.319
-38.434 130.255 733.081
-8.855 147.813 721.567
-2.119 142.496 730.424
-34.005 134.697 725.995
-18.062 135.413 727.426
-6.547 148.699 722.366
-18.947 127.787 737.510
-8.319 148.187 721.567
-61.244 149.585 728.652
-52.935 137.185 730.424
-26.033 130.250 731.310
-19.989 130.984 732.195
-53.491 134.470 734.852
-18.947 128.327 736.643
-26.033 130.984 730.425
-6.440 148.699 722.452
-7.780 137.185 731.310
-52.605 134.046 734.852
-52.605 136.995 730.424
-8.319 147.232 722.452
-52.605 137.185 730.242
-20.826 130.099 733.081
-38.434 134.527 726.562
-5.662 149.293 722.452
-53.491 134.527 734.730
-25.148 130.375 731.310
-33.119 135.321 725.109
-18.062 127.968 737.510
-37.548 130.145 733.081
-47.291 127.703 739.281
-60.577 148.699 728.522
-51.719 136.480 730.424
-8.319 147.813 721.938
-50.937 133.642 733.967
-21.605 129.896 733.081
-5.662 149.585 722.074
-18.062 128.327 736.953
-33.119 135.413 724.978
-25.148 130.984 730.564
-50.834 133.588 733.967
-21.605 130.099 732.777
-51.719 137.185 729.702
-46.586 127.442 739.281
-36.662 130.611 732.195
-60.577 149.585 728.109
-7.606 147.813 722.452
-17.176 137.664 725.109
-46.405 127.442 739.141
-36.662 130.984 731.650
-2.119 142.499 730.422
-17.176 138.070 724.695
-7.433 147.943 722.452
-61.767 150.471 728.652
-20.719 130.127 733.081
-5.662 148.699 723.109
-37.548 134.527 726.442
-10.090 138.070 728.135
-50.834 133.642 733.872
-32.233 135.314 725.109
-2.119 143.385 729.799
-37.177 130.099 733.081
-32.233 135.413 724.971
-17.664 129.213 735.738
-61.462 149.969 728.652
-47.699 127.442 740.167
-16.290 137.916 725.109
-9.204 146.042 722.716
-61.462 150.471 728.394
-19.833 130.377 733.081
-47.291 127.442 739.846
-36.662 130.030 733.081
-16.290 138.070 724.952
-19.833 130.984 732.256
-36.662 130.099 732.971
-36.662 134.527 726.356
-9.204 138.203 728.652
-5.407 148.699 723.338
-50.834 133.074 734.852
-9.204 138.956 727.777
-2.117 142.499 730.424
-55.404 139.842 729.538
-5.280 149.585 722.452
-33.119 134.684 725.995
-17.176 128.770 736.624
-17.176 136.856 725.995
-17.176 129.213 735.960
-61.790 148.699 729.538
-55.262 139.733 729.538
-17.176 137.185 725.619
-1.493 143.385 730.424
-18.947 130.644 733.081
-4.776 149.279 723.338
-55.262 139.842 729.472
-62.262 149.585 729.538
-8.319 146.034 723.338
-49.948 129.241 739.281
-61.462 148.699 729.250
-35.776 134.527 726.304
-4.776 149.585 722.984
-32.233 134.662 725.995
-24.262 130.541 731.310
-18.947 130.984 732.614
-8.319 138.814 728.652
-16.290 129.051 736.624
-8.319 138.956 728.491
-8.319 146.042 723.333
-16.290 137.097 725.995
-53.694 139.842 728.652
-38.434 129.106 734.852
-16.290 137.185 725.894
-61.462 149.585 728.836
-1.239 142.499 731.310
-53.491 139.685 728.652
-8.124 138.956 728.652
-50.367 130.984 737.510
-24.262 130.984 730.755
-38.434 129.213 734.684
-8.311 146.042 723.338
-16.290 129.213 736.387
-53.491 139.842 728.535
-18.062 130.914 733.081
-4.444 149.585 723.338
-1.233 142.508 731.310
-15.749 138.070 725.109
-45.519 127.442 738.620
-1.233 143.385 730.689
-8.319 146.928 722.696
-7.433 139.467 728.652
-50.143 130.099 738.395
-23.376 130.742 731.310
-34.891 134.527 726.270
-18.062 130.984 732.984
-7.433 139.842 728.272
-54.118 138.956 729.538
-62.391 151.356 728.652
-37.548 129.022 734.852
-15.955 137.185 725.995
-0.652 143.385 731.310
-53.491 138.554 729.538
-23.376 130.984 731.002
-62.348 151.299 728.652
-53.491 138.956 729.221
-7.433 146.905 723.338
-37.548 129.213 734.541
-62.348 151.356 728.613
-15.805 129.213 736.624
-4.776 149.976 722.452
-51.194 130.984 738.395
-15.405 137.336 725.995
-50.834 130.692 738.395
-34.005 134.527 726.245
-8.319 138.089 729.538
-50.834 130.984 738.009
-54.377 139.117 729.538
-15.405 138.070 725.214
-7.433 146.928 723.321
-21.605 129.213 734.118
-4.116 150.471 722.452
-22.490 130.967 731.310
-54.377 139.842 729.025
-1.233 143.777 730.424
-63.164 152.242 728.652
-1.233 144.270 730.088
-17.176 129.953 734.852
-7.433 138.688 729.538
-3.890 150.077 723.338
-20.719 129.213 734.484
-41.976 128.777 735.738
-3.890 150.471 722.748
-22.490 130.984 731.288
-33.119 134.527 726.222
-7.433 138.956 729.217
-14.519 137.618 725.995
-48.917 143.385 722.452
-55.262 141.182 728.652
-62.348 152.242 727.789
-32.233 134.527 726.183
-48.177 142.868 722.452
-22.424 130.984 731.310
-0.909 144.270 730.424
-7.433 145.629 724.224
-41.976 129.213 735.160
-14.519 138.070 725.514
-7.433 146.042 723.954
-36.662 128.917 734.852
-56.467 140.727 729.538
-63.314 151.356 729.538
-48.177 143.385 722.037
-51.161 132.756 735.738
-19.833 129.213 734.847
-4.776 148.699 723.918
-17.176 129.354 735.738
-31.348 135.303 725.109
-50.834 132.547 735.738
-27.805 132.402 728.652
-31.348 135.413 724.957
-50.834 132.756 735.394
-36.662 129.213 734.362
-0.347 145.156 730.424
-17.176 136.104 726.881
-41.091 128.697 735.738
-17.176 136.299 726.645
-0.347 145.156 730.424
-7.433 147.813 722.578
-63.234 151.232 729.538
-41.091 129.213 735.014
-56.148 140.444 729.538
-63.234 151.356 729.459
-16.452 136.299 726.881
-38.434 129.682 733.967
-21.605 129.307 733.967
-38.434 130.099 733.323
-30.462 135.290 725.109
-47.257 143.385 721.567
-16.731 130.099 734.852
-41.976 128.165 736.624
-64.048 152.242 729.538
-56.148 140.727 729.384
-17.176 135.385 727.767
-41.976 128.327 736.373
-17.176 135.413 727.731
-63.234 152.242 728.725
-50.686 131.870 736.624
-46.405 142.899 721.567
-20.719 129.541 733.967
-11.862 134.954 731.310
-17.075 135.413 727.767
-10.976 141.613 724.352
-55.262 140.727 728.917
-41.091 128.115 736.624
-37.548 129.578 733.967
-0.347 143.891 731.310
-41.091 128.327 736.287
-37.548 130.099 733.155
-0.347 144.270 731.050
-51.719 132.583 736.624
-30.462 135.413 724.940
-61.462 151.356 727.803
-16.290 135.630 727.767
-10.976 134.860 732.195
-50.834 131.976 736.624
-20.719 130.099 733.124
-4.440 148.699 724.224
-16.290 129.656 735.738
-27.805 132.756 728.240
-61.423 151.356 727.767
-16.290 136.299 726.931
-51.719 132.756 736.326
-19.833 129.788 733.967
-46.405 143.385 721.186
-54.774 140.727 728.652
-36.662 129.458 733.967
-40.205 128.641 735.738
-54.377 140.390 728.652
-31.348 134.636 725.995
-26.919 132.431 728.652
-16.290 130.099 735.087
-3.890 149.257 724.224
-19.833 130.099 733.491
-47.613 142.499 722.452
-3.890 149.585 723.908
-26.919 132.756 728.273
-51.719 133.087 735.738
-10.090 141.613 724.907
-15.405 135.890 727.767
-62.328 152.242 727.767
-54.377 140.727 728.436
-30.462 134.612 725.995
-16.290 130.257 734.852
-47.291 142.293 722.452
-3.004 145.269 727.767
-61.462 151.401 727.767
-10.090 142.499 724.324
-40.205 129.213 734.898
-15.405 136.299 727.233
-41.976 131.419 732.195
-47.291 142.499 722.295
-27.805 131.641 729.538
-53.491 140.727 727.863
-41.976 131.870 731.540
-2.395 146.042 727.767
-18.947 130.028 733.967
-29.576 135.273 725.109
-27.805 131.870 729.266
-3.423 150.471 723.338
-18.947 130.099 733.859
-29.576 135.413 724.918
-9.761 141.613 725.109
-53.491 140.860 727.767
-39.319 128.597 735.738
-2.119 146.042 728.007
-15.405 130.001 735.738
-50.698 129.213 740.167
-26.919 131.671 729.538
-14.519 136.184 727.767
-41.091 131.259 732.195
-9.204 142.172 725.109
-46.405 141.701 722.452
-15.405 130.099 735.595
-62.755 148.699 730.424
-10.090 135.342 732.195
-18.678 130.099 733.967
-46.405 142.499 721.871
-28.690 135.266 725.109
-50.947 130.099 739.281
-15.160 130.099 735.738
-28.690 135.413 724.910
-10.090 135.413 732.071
-50.834 130.000 739.281
-56.069 138.956 730.424
-50.834 130.099 739.155
-18.062 130.269 733.967
-47.291 143.385 721.582
-55.262 138.451 730.424
-14.519 136.299 727.611
-55.262 138.956 730.057
-41.091 131.870 731.319
-18.062 130.099 734.221
-9.204 142.499 724.909
-15.405 130.627 734.852
-9.954 135.413 732.195
-29.576 134.591 725.995
-51.719 130.757 739.281
-14.620 130.984 734.852
-26.919 131.870 729.301
-3.571 149.585 724.224
-48.653 144.270 721.567
-40.205 128.087 736.624
-63.214 149.585 730.424
-9.204 143.385 724.374
-40.205 131.114 732.195
-16.290 136.340 726.881
-40.205 128.327 736.231
-9.204 141.613 725.471
-2.119 146.394 727.767
-56.148 139.009 730.424
-62.348 148.699 730.042
-14.519 130.382 735.738
-9.204 135.818 732.195
-39.319 130.985 732.195
-56.148 139.842 729.885
-51.719 130.984 738.961
-62.348 149.585 729.614
-8.906 142.499 725.109
-17.833 130.984 733.081
-3.004 150.143 724.224
-14.519 130.984 734.919
-31.348 134.527 726.142
-3.004 150.471 723.823
-48.177 143.953 721.567
-56.148 138.956 730.460
-63.691 150.471 730.424
-15.405 136.584 726.881
-9.204 136.299 731.400
-15.405 137.185 726.169
-39.319 128.068 736.624
-8.319 143.186 725.109
-63.234 149.623 730.424
-39.319 128.327 736.183
-15.405 129.357 736.624
-2.635 150.471 724.224
-48.177 144.270 721.305
-10.090 134.817 733.081
-1.418 146.042 728.652
-8.319 143.385 724.996
-63.234 150.471 729.988
-14.519 136.871 726.881
-26.033 132.508 728.652
-30.462 134.527 726.107
-51.719 130.080 740.167
-54.377 138.956 729.654
-14.519 137.185 726.495
-14.519 129.739 736.624
-8.156 143.385 725.109
-14.519 130.099 736.132
-26.033 132.756 728.361
-50.834 129.320 740.167
-1.712 146.928 727.767
-17.176 130.563 733.967
-51.719 130.099 740.143
-17.176 130.984 733.385
-49.895 145.156 721.567
-64.074 149.585 731.310
-9.204 135.314 733.081
-49.062 144.547 721.567
-8.319 141.768 725.995
-63.234 148.699 730.901
-1.233 146.294 728.652
-8.319 142.499 725.525
-63.234 149.585 730.443
-49.062 145.156 721.041
-29.576 134.527 726.079
-1.233 146.928 728.209
-9.204 135.413 732.903
-3.890 148.699 724.707
-16.290 130.899 733.967
-25.148 132.629 728.652
-17.176 128.173 737.510
-41.976 127.595 737.510
-7.668 142.499 725.995
-17.176 128.327 737.280
-16.290 130.984 733.848
-25.148 132.756 728.501
-17.176 130.099 734.630
-0.790 146.928 728.652
-41.091 127.552 737.510
-16.580 128.327 737.510
-8.369 136.299 732.195
-7.433 142.764 725.995
-49.948 144.167 722.452
-7.433 143.385 725.617
-52.571 138.956 728.652
-51.719 138.301 728.652
-26.033 131.747 729.538
-49.062 143.485 722.452
-26.033 131.870 729.391
-9.023 135.413 733.081
-41.976 127.442 737.760
-51.719 138.956 728.061
-16.290 128.409 737.510
-49.948 144.270 722.367
-16.072 130.984 733.967
-1.233 146.042 728.828
-49.062 144.270 721.796
-8.319 135.814 733.081
-15.405 130.984 734.353
-25.148 131.866 729.538
-8.319 136.299 732.246
-52.605 138.983 728.652
-8.319 144.270 724.465
-25.148 131.870 729.533
-7.488 136.299 733.081
-49.948 145.156 721.602
-17.176 127.540 738.395
-27.805 133.154 727.767
-3.414 148.699 725.109
-19.833 131.030 732.195
-27.805 137.499 722.452
-7.433 144.226 725.109
-52.605 139.842 727.929
-0.559 146.042 729.538
-15.405 138.174 725.109
-40.205 127.532 737.510
-59.691 148.699 727.810
-3.004 149.162 725.109
-15.405 138.956 724.367
-47.291 143.404 721.567
-16.290 127.773 738.395
-7.433 144.270 725.083
-3.004 149.585 724.765
-26.919 133.182 727.767
-16.290 128.327 737.625
-27.805 138.070 721.842
-52.389 139.842 727.767
-8.319 136.328 732.195
-47.291 144.270 720.843
-39.319 127.524 737.510
-51.719 139.282 727.767
-0.347 146.386 729.538
-14.519 138.484 725.109
-0.347 146.928 729.147
-14.519 138.956 724.673
-18.947 131.299 732.195
-2.636 149.585 725.109
-18.947 131.870 731.461
-7.433 145.156 724.532
-26.919 137.605 722.452
-52.605 138.956 728.675
-26.033 133.257 727.767
-35.776 134.145 726.881
-18.062 131.583 732.195
-2.119 150.152 725.109
-15.405 128.705 737.510
-18.062 131.870 731.820
-26.919 138.070 721.974
-2.119 150.471 724.779
-15.405 129.213 736.825
-39.319 134.425 726.881
-34.891 134.113 726.881
-25.148 133.375 727.767
-9.204 134.798 733.967
-1.233 147.580 727.767
-51.313 138.956 727.767
-3.004 148.699 725.465
-50.834 138.586 727.767
-14.519 129.070 737.510
-34.005 134.085 726.881
-49.211 142.499 723.338
-14.519 129.213 737.321
-7.433 142.499 726.160
-1.070 147.813 727.767
-2.402 148.699 725.995
-26.033 137.764 722.452
-35.776 133.642 727.651
-38.434 128.545 735.738
-49.062 142.392 723.338
-34.891 133.642 727.582
-0.347 147.623 728.652
-15.405 128.067 738.395
-2.119 149.052 725.995
-8.319 135.317 733.967
-26.033 130.986 730.424
-15.405 128.327 738.025
-2.119 149.585 725.595
-26.033 138.070 722.151
-8.319 135.413 733.794
-34.005 133.642 727.523
-0.347 147.813 728.521
-53.352 140.727 727.767
-8.150 135.413 733.967
-49.062 142.499 723.254
-52.605 140.034 727.767
-14.711 128.327 738.395
-37.548 128.480 735.738
-25.148 131.103 730.424
-25.148 137.969 722.452
-38.434 134.328 726.881
-8.319 134.795 734.852
-33.119 134.054 726.881
-0.497 148.699 727.767
-48.177 141.739 723.338
-14.519 128.408 738.395
-25.148 138.070 722.357
-48.177 142.499 722.746
-38.434 128.039 736.624
-1.812 150.471 725.109
-38.434 128.327 736.116
-0.347 148.699 727.928
-37.548 134.249 726.881
-17.194 131.870 732.195
-32.233 134.012 726.881
-49.948 143.090 723.338
-49.948 143.385 723.104
-33.119 133.642 727.460
-1.696 149.585 725.995
-32.233 133.642 727.390
-49.062 143.385 722.533
-17.176 131.876 732.195
-37.548 127.993 736.624
-37.548 128.327 736.014
-27.805 135.973 724.224
-24.395 132.756 728.652
-1.233 150.157 725.995
-36.662 134.188 726.881
-1.233 150.471 725.714
-27.805 136.299 723.829
-36.662 133.642 727.738
-49.503 141.613 724.224
-0.347 146.042 729.788
-16.290 132.205 732.195
-25.118 131.870 729.538
-49.948 142.499 723.815
-0.963 150.471 725.995
-16.290 132.756 731.482
-49.062 141.613 723.958
-36.070 128.327 735.738
-54.260 136.299 732.195
-26.919 136.023 724.224
-53.491 135.937 732.195
-13.743 139.842 724.224
-17.176 131.206 733.081
-24.262 132.020 729.538
-53.491 136.299 731.694
-36.662 128.396 735.738
-26.919 136.299 723.896
-17.176 131.870 732.203
-2.119 148.699 726.244
-24.262 132.756 728.682
-48.177 141.613 723.432
-16.290 131.552 733.081
-16.290 131.870 732.645
-36.662 127.921 736.624
-36.662 128.327 735.868
-53.529 135.413 733.081
-43.748 137.701 724.224
-23.376 132.222 729.538
-48.001 141.613 723.338
