-484.756348 273.162231 992.436279 -1.567225 3.966980 -4.607923 
-464.279846 256.185913 1002.134277 2.644613 -4.483881 -3.516010 
-557.353210 273.249695 1041.921143 -2.913071 -3.775097 -4.089512 
-544.352417 274.956055 1033.389282 -2.798730 -2.253356 -5.154172 
-563.249573 300.551636 1049.651611 -1.471648 4.123637 -4.503663 
-559.038025 276.662415 1040.214844 -2.730723 -3.288166 -4.601535 
-556.424072 272.530090 1041.921143 -2.918661 -3.846191 -4.017798 
-490.026367 264.717773 990.729919 -1.974073 0.232321 -2.432074 
-558.130432 275.933960 1040.214844 -2.721961 -3.405513 -4.523300 
-556.424072 273.249695 1041.259277 -2.872661 -3.652681 -4.224100 
-556.202698 281.781555 1036.802002 -2.344856 -0.123917 -5.796695 
-515.471069 273.249695 1071.934204 3.803180 3.495909 -3.564590 
-460.867126 278.266357 992.436279 -0.701384 4.144526 -4.669646 
-542.773071 276.662415 1031.862549 -2.868056 -1.767964 -5.296515 
-489.875488 265.999817 990.729919 -3.738266 0.705286 -4.989682 
-462.573486 256.687317 1002.674561 2.260174 -4.453198 -3.811485 
-532.505371 266.424194 1055.572144 4.473698 -0.881515 -4.315967 
-483.049988 271.654236 990.729919 -1.175304 3.768093 -4.887185 
-564.955933 300.823730 1050.453003 -1.401866 4.235682 -4.423215 
-554.717712 281.781555 1036.199463 -2.390044 -0.019753 -5.779523 
-489.875488 264.717773 990.608459 -1.953817 0.231955 -2.448351 
-559.545532 274.956055 1041.921143 -2.845233 -3.674760 -4.226819 
-558.130432 276.662415 1039.678345 -2.684180 -3.195924 -4.690417 
-462.573486 257.892334 1001.327759 2.276720 -4.361353 -3.901093 
-489.765686 266.424194 990.729919 -3.435945 1.323506 -5.072991 
-558.130432 273.856201 1041.921143 -2.869990 -3.685197 -4.202088 
-515.471069 273.925781 1072.635864 3.825963 3.614943 -3.427801 
-558.130432 274.956055 1040.975342 -2.820473 -3.549733 -4.347799 
-532.270996 268.130554 1055.572144 4.546082 -0.193687 -4.315123 
-563.249573 301.385559 1050.453003 -1.394238 4.294354 -4.368959 
-481.343628 272.167969 990.729919 -1.143472 3.754413 -4.906389 
-538.503662 274.956055 1029.976563 -3.223567 -2.153245 -4.943602 
-547.391541 271.543274 1036.802002 -2.992026 -2.992114 -4.641191 
-556.424072 276.662415 1038.707764 -2.576489 -3.125888 -4.790044 
-553.011353 281.781555 1035.476074 -2.268047 0.085241 -5.810005 
-460.867126 257.493896 1002.674561 1.993527 -4.581630 -3.804905 
-488.833374 268.130554 990.729919 -3.044223 2.253422 -4.993129 
-513.764709 273.249695 1074.147949 4.534023 3.235157 -2.870638 
-546.185852 270.316528 1036.802002 -3.095530 -2.995112 -4.571524 
-559.728882 273.249695 1043.627441 -2.952157 -3.925642 -3.912441 
-530.845337 266.424194 1057.278564 4.404761 -1.065118 -4.351861 
-484.518250 273.249695 992.436279 -1.487801 4.099561 -4.512549 
-558.130432 272.071594 1043.627441 -2.889550 -4.012293 -3.872255 
-465.986237 278.368774 993.272034 -0.521203 4.329481 -4.522852 
-460.867126 257.892334 1002.230164 1.908555 -4.484774 -3.959549 
-558.130432 278.368774 1038.615479 -2.599919 -2.733055 -5.004588 
-483.049988 273.249695 991.998291 -1.284755 3.938111 -4.719981 
-551.622498 280.075195 1035.095703 -2.176752 -0.757181 -5.830204 
-530.828491 268.130554 1057.088135 4.496190 -0.044551 -4.370434 
-513.655457 273.249695 1074.342285 4.804527 3.152926 -2.523191 
-551.304932 279.452148 1035.095703 -2.268842 -1.378060 -5.685466 
-546.185852 271.543274 1036.041504 -2.924134 -2.734506 -4.837428 
-562.382446 295.432556 1045.333984 -1.845815 3.346766 -4.985199 
-491.581848 264.717773 992.001770 -2.003269 0.202789 -2.410879 
-464.279846 278.368774 993.049316 -0.637712 4.272609 -4.561298 
-558.130432 273.249695 1042.463623 -2.875827 -3.836148 -4.057510 
-542.773071 280.075195 1031.260132 -2.892979 -0.188565 -5.564356 
-481.343628 273.249695 991.556458 -1.195746 3.871447 -4.797582 
-551.304932 280.075195 1034.982178 -2.190746 -0.712113 -5.838204 
-561.543213 295.891052 1045.333984 -1.880738 3.388871 -4.944842 
-491.581848 266.424194 992.085632 -4.573154 0.781788 -3.833163 
-515.013672 274.956055 1074.342285 4.195783 3.727833 -2.781710 
-403.703583 277.515625 1005.582275 2.318392 -3.556585 -4.629311 
-513.764709 273.406494 1074.342285 4.575034 3.402544 -2.618033 
-483.049988 273.752319 992.436279 -1.318658 4.108095 -4.564563 
-561.543213 295.432556 1045.032593 -1.876679 3.285300 -5.015668 
-541.066711 280.075195 1030.291260 -3.156350 -0.074593 -5.416253 
-515.471069 274.956055 1073.739990 3.893575 3.709437 -3.229975 
-534.241211 269.049744 1052.159424 2.881176 -0.814153 -0.956429 
-542.952576 269.836914 1035.095703 -2.839804 -2.740785 -4.887585 
-462.573486 258.217468 1000.968140 2.316169 -4.502897 -3.681911 
-489.875488 266.424194 990.805298 -3.577297 1.258471 -4.988137 
-462.573486 278.368774 992.792847 -0.690158 4.269413 -4.555700 
-559.871582 281.781555 1038.508423 -2.747599 -0.213749 -5.630325 
-549.598572 280.075195 1034.312012 -2.344413 -0.766234 -5.760490 
-540.539673 280.075195 1029.976563 -3.259387 -0.053188 -5.354176 
-384.933472 287.753845 1020.584412 5.198135 -0.692735 -3.459915 
-542.773071 269.655884 1035.095703 -2.832793 -2.925588 -4.781518 
-481.343628 274.279663 992.436279 -1.242906 4.029442 -4.657302 
-559.836792 281.588379 1038.508423 -2.771750 -0.779709 -5.570842 
-559.836792 296.821533 1045.333984 -1.810196 3.461646 -4.920673 
-460.867126 278.368774 992.528564 -0.691550 4.281046 -4.544188 
-534.011719 269.836914 1052.159424 1.520576 -0.443310 -0.481041 
-551.952209 281.781555 1035.095703 -2.088642 0.131304 -5.891816 
-542.773071 269.836914 1034.993042 -2.835806 -2.702480 -4.912168 
-559.836792 281.781555 1038.492798 -2.631761 -0.198630 -5.697531 
-564.120117 274.956055 1045.333984 -3.109903 -3.911317 -3.806897 
-559.836792 295.432556 1044.360107 -1.903446 3.331222 -4.972900 
-542.773071 281.781555 1031.327148 -2.729029 0.706628 -5.602082 
-491.373535 268.130554 992.436279 -3.475313 2.153421 -4.740670 
-460.867126 258.989014 1000.968140 1.735641 -4.774767 -3.638510 
-512.058350 271.543274 1075.552246 5.269652 2.630569 -2.151620 
-551.304932 281.781555 1034.875732 -2.097906 0.197851 -5.898554 
-563.249573 274.273376 1045.333984 -3.046264 -4.005169 -3.759697 
-544.558777 271.543274 1035.095703 -2.813728 -2.541484 -5.008538 
-491.581848 267.690430 992.436279 -3.735015 1.312033 -4.855238 
-460.867126 259.598694 1000.088135 1.635227 -4.996441 -3.412439 
-563.249573 274.956055 1044.628784 -3.053943 -3.879238 -3.882717 
-541.066711 281.781555 1030.411987 -3.048212 0.856447 -5.408790 
-544.479431 271.456482 1035.095703 -2.836324 -2.615556 -4.957447 
-562.282288 280.075195 1040.214844 -3.054141 -1.722231 -5.194948 
-489.875488 268.130554 991.366699 -3.234103 2.071285 -4.930079 
-518.183472 261.305054 1064.104004 1.592395 -0.323435 -2.695886 
-561.543213 279.029968 1040.214844 -2.977347 -2.380591 -4.979893 
-465.986237 279.255676 994.142700 -0.574748 4.440701 -4.407257 
-479.637238 270.328918 989.023560 -0.949922 3.561512 -5.087755 
-436.977875 286.900696 996.985229 0.952257 2.910278 -5.481667 
-544.479431 271.543274 1035.052979 -2.795711 -2.477536 -5.051762 
-563.249573 295.432556 1045.645020 -1.857215 3.367482 -4.962648 
-549.598572 281.781555 1034.237427 -2.235908 0.341402 -5.837297 
-563.913452 273.249695 1047.040283 -3.094190 -4.195662 -3.503103 
-561.543213 280.075195 1039.781738 -3.009131 -1.703708 -5.222444 
-517.823425 263.011414 1064.104004 3.196123 -0.171179 -5.350348 
-479.637238 271.543274 989.878540 -1.083647 3.622565 -5.016773 
-510.667358 268.130554 1076.048584 2.140473 0.602015 -0.567677 
-563.249573 297.138916 1046.886230 -1.833704 3.525867 -4.866049 
-464.279846 279.491394 994.142700 -0.632345 4.412593 -4.427685 
-384.933472 287.722168 1020.591492 5.173573 -0.836742 -3.465433 
-563.249573 272.768677 1047.040283 -3.040538 -4.284337 -3.442519 
-542.773071 271.543274 1034.082886 -2.829114 -2.512257 -5.014677 
-460.867126 273.249695 988.845398 -0.480309 2.541905 -5.720232 
-517.177490 261.305054 1064.777466 0.826976 -0.173304 -1.232277 
-563.249573 273.249695 1046.468994 -3.045764 -4.141637 -3.609211 
-559.836792 280.075195 1038.799072 -2.794440 -1.699331 -5.310606 
-561.543213 297.138916 1046.209229 -1.851430 3.593252 -4.806134 
-403.703583 277.988525 1005.234131 2.327255 -3.363359 -4.766780 
-511.147278 269.836914 1076.048584 5.693336 2.001278 -1.620955 
-490.193756 269.836914 992.436279 -3.787855 3.004230 -3.608042 
-517.177490 263.011414 1064.540283 2.843273 -0.041844 -3.814931 
-545.716858 269.836914 1036.802002 -3.034892 -3.151863 -4.501681 
-477.930847 270.800171 989.023560 -1.003644 3.388065 -5.194892 
-465.986237 280.075195 994.992493 -0.611918 4.567156 -4.270857 
-489.875488 269.836914 992.250366 -2.828634 2.672544 -4.930954 
-459.160767 273.249695 988.683838 -0.356371 2.347056 -5.798147 
-563.028687 281.781555 1040.214844 -3.008248 -0.781403 -5.428614 
-544.479431 268.682983 1036.802002 -2.945944 -3.362281 -4.394119 
-404.403961 277.515625 1005.234131 2.314327 -3.475645 -4.690290 
-561.543213 281.781555 1039.383789 -2.992349 -0.604398 -5.451894 
-544.479431 269.836914 1035.999512 -2.897321 -2.972587 -4.706891 
-423.326904 277.515625 993.792542 1.697282 1.177537 -5.924985 
-566.141235 274.956055 1047.040283 -3.188279 -4.009448 -3.634329 
-489.875488 270.165039 992.436279 -3.205426 3.596443 -3.712875 
-462.573486 256.185913 1003.282776 1.149781 -2.280337 -1.828774 
-459.160767 273.967957 989.023560 -0.461308 2.926998 -5.525863 
-515.774963 263.011414 1065.810303 2.201209 0.160542 -2.225597 
-559.836792 297.138916 1045.558472 -1.770260 3.629411 -4.808020 
-543.806641 268.130554 1036.802002 -2.894371 -3.765176 -4.070282 
-559.246338 280.075195 1038.508423 -2.685969 -1.587379 -5.418827 
-477.930847 271.543274 989.508179 -1.116299 3.482164 -5.107245 
-465.986237 280.853760 995.849060 -0.625147 4.632893 -4.197870 
-511.873932 271.543274 1076.048584 5.466723 2.516250 -1.763350 
-464.279846 280.075195 994.737427 -0.649752 4.526915 -4.307726 
-533.471924 269.836914 1053.865723 3.978020 -0.536764 -2.341472 
-546.685669 278.368774 1033.389282 -2.470544 -1.193172 -5.647321 
-467.692627 281.781555 997.123047 -0.619218 4.688210 -4.136858 
-542.773071 268.130554 1036.109009 -2.791327 -3.491708 -4.390221 
-558.130432 278.594604 1038.508423 -2.676627 -2.220752 -5.221200 
-518.017456 264.717773 1064.104004 3.035637 0.957873 -5.349937 
-561.543213 298.189819 1047.040283 -1.773535 3.736357 -4.729761 
-465.986237 281.781555 996.878479 -0.637025 4.633205 -4.195538 
-464.279846 281.101135 995.849060 -0.676915 4.610435 -4.214690 
-546.185852 277.512451 1033.389282 -2.648841 -1.635738 -5.455605 
-558.130432 280.075195 1037.969482 -2.676452 -1.457480 -5.470931 
-517.177490 264.717773 1064.638916 3.717372 0.902213 -4.876287 
-533.263245 271.543274 1053.865723 1.435243 -0.030504 -0.752925 
-476.224487 271.336487 989.023560 -1.043441 3.247299 -5.276708 
-460.892395 256.185913 1004.380920 1.054551 -2.384740 -1.745867 
-560.127991 298.845276 1047.040283 -1.728618 3.899051 -4.610763 
-564.955933 274.031128 1047.040283 -3.140668 -4.109631 -3.563676 
-546.185852 278.368774 1033.169434 -2.636248 -1.170472 -5.578522 
-564.955933 274.956055 1046.022217 -3.137960 -3.960620 -3.730998 
-464.279846 281.781555 996.599731 -0.704951 4.620458 -4.199038 
-542.773071 283.487915 1031.670898 -2.529742 1.374712 -5.581516 
-462.573486 279.746155 994.142700 -0.665830 4.409505 -4.425900 
-559.836792 298.845276 1046.933594 -1.738694 3.815135 -4.679626 
-476.224487 271.543274 989.150330 -1.048831 3.370114 -5.194760 
-547.560242 274.956055 1035.095703 -2.709323 -2.431677 -5.120356 
-556.424072 280.075195 1037.116211 -2.529779 -1.417541 -5.520218 
-515.899414 264.717773 1065.810303 4.343966 0.829544 -4.406996 
-460.867126 256.196350 1004.380920 1.967355 -4.890295 -3.412305 
-546.185852 273.391418 1035.095703 -2.814564 -2.391664 -5.082749 
-541.066711 283.487915 1030.843262 -2.824712 1.773025 -5.310721 
-543.238098 278.368774 1031.682861 -2.777309 -0.924304 -5.552997 
-475.571472 271.543274 989.023560 -1.001400 3.314592 -5.240196 
-559.205811 297.138916 1045.333984 -1.762765 3.615362 -4.824337 
-460.867126 280.004944 994.142700 -0.681889 4.413091 -4.420033 
-532.534851 269.836914 1055.327148 5.239423 0.157423 -3.444862 
-462.573486 281.355896 995.849060 -0.705950 4.579533 -4.243511 
-481.947205 263.011414 985.610779 -1.807470 0.136009 -5.915599 
-546.185852 274.956055 1034.374146 -2.733369 -2.263908 -5.183920 
-462.573486 280.075195 994.476440 -0.670765 4.503248 -4.329370 
-558.130432 281.781555 1037.683105 -2.632303 -0.276910 -5.662335 
-457.454376 262.787048 995.849060 0.485967 -5.355650 -3.242911 
-437.831055 286.900696 996.817078 1.124860 2.879214 -5.467308 
-481.343628 261.516296 985.610779 -1.367052 -1.081728 -5.941847 
-558.130432 295.432556 1043.708008 -1.853155 3.374683 -4.961493 
-545.614075 276.662415 1033.389282 -2.691643 -1.960279 -5.326907 
-462.573486 281.781555 996.311340 -0.726787 4.586614 -4.232274 
-544.479431 275.118286 1033.389282 -2.812233 -2.090189 -5.214965 
-512.820557 273.249695 1076.048584 5.040323 3.092565 -2.079980 
-460.867126 280.075195 994.213806 -0.677484 4.487440 -4.345002 
-541.314514 285.194275 1031.682861 -2.401765 2.800559 -5.048063 
-558.130432 297.138916 1044.939087 -1.845769 3.576395 -4.824445 
-542.773071 283.528931 1031.682861 -2.496251 1.916010 -5.433086 
-479.637238 272.683655 990.729919 -1.155189 3.668444 -4.968328 
-544.479431 276.662415 1032.803101 -2.807774 -1.803635 -5.320823 
-512.058350 271.914856 1076.048584 5.288846 2.804368 -1.864545 
-460.867126 281.627258 995.849060 -0.750124 4.510631 -4.308845 
-549.020569 273.249695 1036.802002 -2.846063 -2.860390 -4.815281 
-481.343628 263.011414 985.457825 -1.245881 0.147673 -6.074708 
-455.747986 262.888306 995.849060 0.256833 -5.340600 -3.299414 
-460.867126 281.781555 996.009460 -0.786692 4.500150 -4.313498 
-557.909668 295.432556 1043.627441 -1.872990 3.348140 -4.973973 
-477.930847 273.243225 990.729919 -1.206932 3.571255 -5.026473 
-544.479431 278.368774 1032.307129 -2.774518 -1.137927 -5.509383 
-541.066711 285.194275 1031.561890 -2.552254 2.786788 -4.986121 
-384.519958 286.900696 1021.444641 5.250301 -1.160666 -3.240899 
-515.471069 263.011414 1066.136719 1.189488 0.086691 -1.107743 
-481.343628 263.982300 985.610779 -1.261572 1.394078 -5.944655 
-556.424072 281.781555 1036.890869 -2.472762 -0.145536 -5.728455 
-436.977875 286.393616 996.702209 0.950679 3.008227 -5.432823 
-547.892212 272.066650 1036.802002 -2.994454 -2.797289 -4.762042 
-568.015015 274.956055 1048.746582 -3.216696 -4.121926 -3.480891 
-424.180054 277.515625 993.559448 1.477450 1.388983 -5.935553 
-556.424072 296.261475 1043.627441 -1.867949 3.451921 -4.904874 
-532.555298 271.543274 1055.572144 4.228646 0.263362 -2.048645 
-513.964172 274.956055 1076.048584 4.314588 3.847729 -2.332699 
-479.637238 273.249695 991.144043 -1.202426 3.782105 -4.867719 
-532.534851 271.304993 1055.572144 5.432912 0.535294 -3.032131 
-547.352478 280.075195 1033.389282 -2.380300 -0.513849 -5.775509 
-513.764709 274.686951 1076.048584 4.740664 3.354722 -2.361868 
-561.691711 276.662415 1041.921143 -2.938614 -3.486948 -4.315288 
-547.892212 273.249695 1036.138672 -2.848662 -2.635253 -4.940410 
-459.160767 274.956055 989.600830 -0.521040 3.358236 -5.271181 
-566.662292 273.917358 1048.746582 -3.192007 -4.229976 -3.372972 
-396.878082 283.487915 1006.164856 3.424701 -2.597604 -4.582634 
-515.471069 264.717773 1066.269775 3.397038 0.710070 -3.067043 
-477.930847 273.249695 990.734436 -1.182652 3.681737 -4.948530 
-467.692627 282.154663 997.555420 -0.624683 4.703636 -4.117580 
-546.185852 273.249695 1035.161377 -2.801124 -2.470576 -5.049201 
-561.543213 276.542053 1041.921143 -2.911897 -3.614612 -4.232376 
-566.662292 274.956055 1047.507080 -3.211096 -4.072697 -3.544076 
-484.976013 261.305054 987.317200 -0.984997 -0.328502 -1.537125 
-460.867126 256.185913 1004.397278 0.787338 -1.962830 -1.252403 
-465.986237 282.399780 997.555420 -0.662611 4.638131 -4.186449 
-479.637238 274.803223 992.436279 -1.238567 3.961524 -4.717002 
-556.424072 297.138916 1044.267578 -1.859325 3.636513 -4.772586 
-539.360352 285.194275 1030.650146 -2.605947 3.054436 -4.768260 
-532.534851 271.543274 1055.611328 5.392395 0.455024 -3.153306 
-546.185852 280.075195 1032.890625 -2.608022 -0.436988 -5.686132 
-561.543213 276.662415 1041.822998 -2.904391 -3.397505 -4.412769 
-547.892212 274.956055 1035.267090 -2.702436 -2.458570 -5.108599 
-485.582214 263.011414 987.317200 -2.333822 -0.014174 -3.716406 
-479.151611 274.956055 992.436279 -0.736306 2.240160 -2.657461 
-518.907532 266.424194 1064.104004 2.509805 2.014969 -5.385647 
-464.279846 282.648376 997.555420 -0.733151 4.622139 -4.192141 
-558.130432 297.654419 1045.333984 -1.804664 3.725204 -4.726700 
-518.883850 266.390869 1064.104004 2.785548 1.620553 -5.369258 
-567.485413 273.249695 1050.453003 -3.157884 -4.461458 -3.095458 
-484.756348 261.305054 987.173767 -1.590369 -0.565303 -2.664671 
-532.349915 269.836914 1055.572144 4.866350 0.513271 -3.930514 
-477.930847 274.956055 992.085815 -1.296834 3.950828 -4.708269 
-559.836792 275.183716 1041.921143 -2.871672 -3.605069 -4.269105 
-542.773071 285.194275 1032.352539 -2.270961 2.627413 -5.212243 
-566.662292 272.678406 1050.453003 -3.121685 -4.571385 -2.967831 
-559.836792 276.662415 1040.697144 -2.846252 -3.394763 -4.449058 
-484.756348 263.011414 986.811768 -2.934962 -0.176997 -5.437069 
-518.883850 266.424194 1064.115234 2.826748 2.052266 -5.190962 
-546.063599 273.249695 1035.095703 -2.788676 -2.475670 -5.056517 
-566.662292 273.249695 1049.624390 -3.154828 -4.398179 -3.185208 
-513.764709 274.956055 1076.475586 4.514848 3.877621 -1.805601 
-547.382874 281.781555 1033.389282 -2.279263 0.451827 -5.820553 
-544.479431 273.249695 1034.219238 -2.808435 -2.376498 -5.092800 
-561.543213 278.368774 1040.574951 -2.933377 -2.963119 -4.678293 
-477.911865 273.249695 990.729919 -1.224077 3.688912 -4.935204 
-556.424072 298.470032 1045.333984 -1.801378 3.781910 -4.682947 
-467.692627 283.487915 999.042358 -0.599214 4.608931 -4.226985 
-546.185852 281.781555 1032.894897 -2.522992 0.520611 -5.713910 
-530.838623 269.836914 1057.278564 4.536330 1.302634 -4.147009 
-518.883850 268.130554 1064.894531 2.968643 2.649881 -4.830860 
-568.368713 273.880737 1050.453003 -3.208719 -4.374163 -3.163890 
-485.308472 264.717773 987.317200 -3.031295 1.239914 -5.301251 
-460.415527 261.305054 997.555420 1.168012 -5.307314 -3.148322 
-544.479431 274.956055 1033.456055 -2.758359 -2.226666 -5.186551 
-476.224487 273.249695 990.320618 -1.164109 3.529670 -5.065633 
-465.986237 283.487915 998.770264 -0.692919 4.659310 -4.157924 
-568.368713 274.956055 1049.075317 -3.196916 -4.195689 -3.410671 
-558.130432 298.845276 1046.287354 -1.756328 3.863499 -4.631534 
-484.756348 264.717773 987.031738 -2.607710 1.257415 -5.531519 
-543.656128 280.075195 1031.682861 -2.671141 -0.295736 -5.665586 
-531.353577 271.543274 1057.278564 4.824652 1.194001 -3.834275 
-464.279846 283.487915 998.485229 -0.774517 4.601522 -4.206367 
-474.518127 271.857788 989.023560 -0.874894 3.291714 -5.275636 
-556.424072 298.845276 1045.641235 -1.757301 3.927188 -4.577243 
-565.761353 273.249695 1048.746582 -3.156721 -4.323030 -3.286659 
-517.177490 266.424194 1065.174561 3.566568 1.910537 -4.735021 
-459.160767 260.547974 999.261780 0.956071 -5.284697 -3.241027 
-474.518127 273.249695 989.931091 -1.003705 3.482821 -5.127344 
-543.560547 281.781555 1031.682861 -2.548931 0.651159 -5.687117 
-404.556763 277.515625 1005.159119 2.337325 -3.370305 -4.757868 
-459.160767 261.305054 997.953552 0.805996 -5.391227 -3.119399 
-467.692627 283.692810 999.261780 -0.641950 4.591134 -4.240956 
-564.955933 272.669861 1048.746582 -3.109726 -4.419785 -3.200991 
-564.955933 273.249695 1047.985596 -3.132813 -4.263972 -3.384182 
-516.461304 266.424194 1065.810303 4.105573 1.863672 -4.334145 
-384.933472 286.900696 1020.810181 5.201816 -1.046067 -3.363688 
-465.986237 283.921570 999.261780 -0.702090 4.604763 -4.213863 
-476.224487 273.832092 990.729919 -1.233698 3.667148 -4.946893 
-418.207764 286.900696 995.280334 1.724581 -0.487976 -5.983819 
-550.008057 271.543274 1038.508423 -2.892482 -3.295314 -4.495597 
-563.339172 271.543274 1048.746582 -2.944818 -4.687031 -2.952519 
-527.415710 276.662415 1064.159424 2.058001 1.364088 -1.946980 
-559.836792 298.974182 1047.040283 -1.754294 3.967272 -4.543145 
-544.479431 280.075195 1032.060791 -2.670420 -0.362795 -5.653990 
-532.580322 273.249695 1055.572144 1.481417 0.027828 -0.507216 
-474.518127 274.378479 990.729919 -1.067177 3.654661 -4.994030 
-437.831055 286.694214 996.702209 1.110351 2.997203 -5.409284 
-517.536621 268.130554 1065.810303 3.279090 2.833416 -4.527075 
-486.462738 263.011414 987.926697 -0.909502 0.066033 -1.313933 
-517.177490 267.663391 1065.810303 3.642958 2.438369 -4.468685 
-464.279846 284.201111 999.261780 -0.831870 4.527262 -4.273175 
-438.363342 286.900696 996.702209 1.215752 2.873646 -5.450951 
-544.479431 281.781555 1032.086914 -2.598866 0.608681 -5.658053 
-457.454376 260.778381 999.261780 0.604249 -5.417435 -3.111643 
-563.249573 271.543274 1048.657959 -2.949384 -4.593040 -3.093284 
-486.462738 264.717773 988.012451 -2.424137 0.921229 -3.849388 
-476.224487 274.956055 991.599854 -1.256832 3.982451 -4.681715 
-549.598572 271.179626 1038.508423 -3.019259 -3.405719 -4.327337 
-525.861084 276.662415 1065.810303 1.970201 1.572413 -1.870484 
-404.556763 277.414734 1005.234131 2.354999 -3.579779 -4.593110 
-558.130432 299.710815 1047.040283 -1.691219 4.060487 -4.484908 
-471.105347 275.127319 990.729919 -0.699415 3.831664 -4.894466 
-457.454376 261.305054 998.297241 0.502560 -5.457121 -3.070677 
-515.471069 266.424194 1066.797485 4.395226 1.710033 -4.102138 
-525.709351 276.472717 1065.810303 3.877606 3.198034 -3.768741 
-564.994446 271.543274 1050.453003 -2.025834 -3.048206 -1.886584 
-474.518127 274.956055 991.165344 -1.064246 3.927117 -4.772800 
-549.085266 276.662415 1035.095703 -2.516701 -2.352696 -5.253025 
-556.424072 300.391907 1047.040283 -1.677799 4.117133 -4.439569 
-525.709351 274.956055 1064.539551 3.694897 3.087949 -4.024189 
-547.892212 275.334900 1035.095703 -2.695869 -2.325988 -5.176383 
-462.573486 282.935181 997.555420 -0.823262 4.554278 -4.248834 
-549.598572 271.543274 1038.240234 -2.971081 -3.137799 -4.557721 
-532.534851 273.249695 1055.706055 2.889699 0.066947 -1.206001 
-459.160767 276.560364 990.729919 -0.560128 3.705001 -5.039832 
-483.049988 261.305054 986.259583 -1.233924 -0.505967 -2.863446 
-517.177490 268.130554 1066.089600 3.635111 2.810419 -4.257496 
-469.398987 275.278625 990.729919 -0.268861 3.878272 -4.924142 
-564.955933 271.543274 1050.412109 -3.002384 -4.702927 -2.876687 
-455.747986 260.915283 999.261780 0.423803 -5.540770 -2.927925 
-547.892212 276.662415 1034.526123 -2.587356 -2.090130 -5.328652 
-515.640869 268.130554 1067.516846 4.009188 2.561267 -4.070985 
-396.469604 282.634705 1006.940491 3.469149 -2.434865 -4.638157 
-460.867126 283.280640 997.555420 -0.958796 4.417516 -4.363090 
-483.049988 263.011414 985.976563 -2.306542 0.063773 -5.693327 
-515.471069 267.819275 1067.516846 4.277811 2.169322 -4.042477 
-561.543213 298.845276 1047.560791 -1.697809 3.885275 -4.633093 
-455.747986 261.305054 998.494934 0.345480 -5.525801 -2.968658 
-471.105347 276.662415 992.080322 -0.716022 4.243125 -4.560002 
-550.391174 269.836914 1040.214844 -1.874159 -2.427052 -2.589461 
-569.075012 283.487915 1043.627441 -3.081532 -0.670755 -5.405898 
-469.398987 276.662415 991.918701 -0.337235 4.222401 -4.633281 
-458.365051 276.662415 990.729919 -0.433265 3.828139 -4.952151 
-396.878082 282.634705 1006.640808 3.419925 -2.473269 -4.654002 
-546.185852 276.662415 1033.659668 -2.622190 -1.967080 -5.350949 
-549.598572 269.240479 1040.214844 -1.468344 -1.948281 -1.963735 
-384.726440 286.047485 1021.444641 5.317914 -1.356757 -3.045817 
-481.343628 261.305054 985.674805 -0.865751 -0.882447 -2.911488 
-561.877808 273.249695 1045.333984 -3.022224 -4.062209 -3.718183 
-549.598572 269.836914 1039.630981 -2.974851 -3.730335 -4.083891 
-462.573486 283.487915 998.152161 -0.889202 4.536105 -4.254151 
-457.454376 276.662415 990.663147 -0.275264 3.670558 -5.087769 
-436.977875 286.047485 996.512207 0.949109 3.080959 -5.389450 
-473.501190 263.011414 985.610779 1.360312 -0.988360 -5.966665 
-568.368713 283.487915 1043.225708 -3.186565 -0.501166 -5.371376 
-547.892212 278.368774 1033.917725 -2.499056 -1.464720 -5.558062 
-561.543213 273.004456 1045.333984 -3.010272 -4.138633 -3.643924 
-459.847839 257.892334 1002.674561 1.635843 -4.761412 -3.756074 
-525.709351 276.662415 1065.969727 1.974539 1.573318 -1.872079 
-561.543213 273.249695 1045.064819 -3.022670 -4.006916 -3.778198 
-474.518127 262.019592 985.610779 1.328871 -1.724536 -5.835119 
-460.867126 283.487915 997.764160 -1.037756 4.383713 -4.378669 
-483.049988 264.717773 986.299072 -1.948211 1.799553 -5.592102 
-552.682251 271.543274 1040.214844 -2.778334 -3.728384 -4.215528 
-561.543213 300.185242 1048.746582 -1.556063 4.052374 -4.542278 
-457.454376 276.750610 990.729919 -0.332028 3.881920 -4.925651 
-531.757507 273.249695 1057.278564 3.916542 0.671211 -2.546083 
-551.304932 270.521729 1040.214844 -2.856782 -3.811070 -4.092994 
-474.518127 263.011414 985.412354 0.870815 -0.376436 -6.131654 
-551.304932 271.543274 1039.323608 -2.801768 -3.482461 -4.408769 
-419.060974 286.900696 995.100525 1.001477 -0.380465 -6.165294 
-566.662292 283.487915 1042.178467 -3.188103 -0.302374 -5.375213 
-462.573486 284.547119 999.261780 -1.002928 4.409138 -4.358122 
-481.343628 264.717773 985.837769 -1.161121 2.296667 -5.673657 
-560.578918 300.551636 1048.746582 -1.578725 4.178770 -4.416405 
-559.836792 271.757446 1045.333984 -3.016784 -4.130567 -3.647252 
-459.160767 276.662415 990.808167 -0.561602 3.952321 -4.845448 
-559.836792 300.551636 1048.478760 -1.653912 4.136191 -4.430712 
-559.836792 273.249695 1043.712402 -2.995200 -4.015310 -3.791708 
-531.880066 274.956055 1057.278564 1.322844 0.130720 -0.771395 
-460.867126 285.009705 999.261780 -1.273960 4.271306 -4.426306 
-524.366943 274.956055 1065.810303 3.699086 3.309207 -3.849168 
-473.581421 264.717773 985.610779 0.574223 0.904442 -6.139904 
-459.160767 259.435608 1000.968140 1.105450 -4.990345 -3.634394 
-569.159363 285.194275 1043.627441 -2.889091 0.290115 -5.551911 
-459.160767 259.598694 1000.728027 1.091644 -5.148264 -3.422898 
-535.981934 271.543274 1029.976563 -3.246599 -2.608996 -4.704113 
-568.368713 285.194275 1043.214233 -2.967977 0.423139 -5.504154 
-522.296570 271.543274 1064.892456 3.289221 3.070637 -4.381782 
-559.836792 300.832031 1048.746582 -1.605381 4.273889 -4.315897 
-547.892212 280.075195 1033.601563 -2.312730 -0.583667 -5.789200 
-553.969727 274.956055 1038.508423 -2.559878 -3.068096 -4.848897 
-460.244934 278.368774 992.436279 -0.663763 4.233759 -4.590995 
-474.518127 264.717773 985.533447 0.372415 0.889625 -6.184340 
-535.947571 271.501648 1029.976563 -3.164103 -2.786335 -4.656182 
-532.534851 261.305054 1057.309814 1.729414 -0.905320 -2.457803 
-524.245483 276.662415 1067.516846 1.916244 1.647441 -1.848150 
-458.233643 259.598694 1000.968140 0.884557 -5.157767 -3.469419 
-561.543213 271.570190 1047.040283 -2.991292 -4.296464 -3.471840 
-553.011353 274.156677 1038.508423 -2.601369 -3.084473 -4.816328 
-459.160767 278.368774 992.288086 -0.590361 4.137478 -4.690530 
-561.543213 300.551636 1049.080200 -1.496399 4.204107 -4.421495 
-535.947571 271.543274 1029.952759 -3.283355 -2.627708 -4.668194 
-566.662292 285.194275 1042.244385 -2.986722 0.682313 -5.453013 
-484.756348 265.582642 987.317200 -2.482426 2.099052 -5.339786 
-547.892212 281.781555 1033.579224 -2.214793 0.425011 -5.840852 
-524.002930 276.380981 1067.516846 3.717682 3.407037 -3.742750 
-553.011353 274.956055 1037.999756 -2.578564 -3.018668 -4.869589 
-561.504211 271.543274 1047.040283 -2.953090 -4.453238 -3.290655 
-457.454376 278.368774 992.088318 -0.529830 4.079057 -4.749259 
-457.454376 259.714355 1000.968140 0.748337 -5.274433 -3.330879 
-559.836792 271.543274 1045.586060 -2.924626 -4.358285 -3.444602 
-561.543213 301.944946 1050.453003 -1.420149 4.353099 -4.301285 
-524.002930 274.956055 1066.167114 3.668702 3.440100 -3.765121 
-566.214050 283.487915 1041.921143 -3.092587 -0.220968 -5.439325 
-467.692627 285.194275 1000.896118 -0.724398 4.624360 -4.191135 
-530.828491 261.305054 1058.499390 1.756196 -0.566183 -2.531878 
-554.841614 273.249695 1040.214844 -2.839598 -3.481301 -4.387129 
-524.002930 273.249695 1064.752686 3.499038 3.107784 -4.187314 
-459.160767 258.119080 1002.674561 1.429201 -4.821745 -3.760432 
-486.462738 266.424194 988.571655 -2.928315 2.065731 -5.140633 
-564.955933 283.487915 1041.217651 -3.060701 0.024032 -5.462338 
-559.542603 271.543274 1045.333984 -2.863305 -4.375914 -3.457364 
-536.057434 274.956055 1028.270142 -3.527208 -1.952823 -4.818629 
-522.609375 274.956055 1067.516846 3.589434 3.495639 -3.791289 
-554.717712 273.147949 1040.214844 -2.867412 -3.543089 -4.317489 
-455.747986 276.662415 990.594666 -0.140147 3.487898 -5.221920 
-530.828491 263.011414 1058.159180 3.838325 -1.039334 -4.852458 
-558.130432 271.543274 1044.201050 -2.790652 -4.336181 -3.567553 
-484.756348 266.424194 987.690063 -2.227078 2.617097 -5.225332 
-522.778870 273.249695 1065.810303 3.499964 3.350291 -3.997592 
-535.947571 274.766052 1028.270142 -3.572821 -2.172594 -4.687922 
-457.454376 258.590393 1002.674561 1.228871 -5.091957 -3.463319 
-522.296570 272.754333 1065.810303 3.377156 3.318550 -4.127073 
-474.518127 265.071594 985.610779 0.426158 1.771281 -5.984597 
-554.717712 273.249695 1040.137207 -2.795934 -3.356413 -4.515119 
-563.249573 283.487915 1040.256592 -2.940580 0.242805 -5.514396 
-457.454376 259.598694 1001.148987 0.786534 -5.236999 -3.380742 
-535.947571 274.956055 1028.187012 -3.693688 -1.955077 -4.690873 
-454.041626 276.662415 990.546387 -0.185445 3.174095 -5.418054 
-465.986237 285.194275 1000.614502 -0.774953 4.460537 -4.352828 
-396.878082 282.047546 1006.940491 3.443080 -2.370554 -4.690508 
-560.569214 302.258057 1050.453003 -1.447122 4.538352 -4.087170 
-530.069824 261.305054 1058.984863 1.686953 -0.428013 -2.611541 
-524.002930 274.550964 1065.810303 3.624677 3.321177 -3.911198 
-484.756348 268.130554 988.689880 -1.853254 3.167906 -5.091852 
-553.011353 271.791565 1040.214844 -2.772739 -3.576002 -4.351566 
-559.836792 302.258057 1050.200073 -1.482887 4.426953 -4.204140 
-455.747986 276.856995 990.729919 -0.256989 3.668218 -5.092210 
-553.011353 273.249695 1039.093018 -2.690135 -3.269195 -4.636291 
-529.683044 263.011414 1058.984863 3.529520 -0.761698 -5.138207 
-464.279846 285.194275 1000.286865 -0.902539 4.404865 -4.385349 
-474.518127 261.305054 985.893860 0.917127 -1.477660 -3.190246 
-529.122070 261.305054 1059.564697 2.063273 -0.544294 -3.431319 
-558.130432 300.551636 1047.829834 -1.642127 4.216347 -4.358202 
-555.838501 283.487915 1036.802002 -2.225771 1.063173 -5.751266 
-561.543213 271.543274 1047.074951 -2.878699 -4.573760 -3.185402 
-522.296570 273.249695 1066.233154 3.406458 3.500531 -3.951156 
-455.747986 259.945313 1000.968140 0.674085 -5.406916 -3.128087 
-483.726196 266.424194 987.317200 -1.788990 2.784013 -5.322704 
-566.029785 285.194275 1041.921143 -2.802267 0.827360 -5.542209 
-472.811737 261.305054 986.451050 1.595414 -3.351489 -4.909090 
-524.002930 276.662415 1067.762939 1.847126 1.658887 -1.897105 
-554.717712 274.956055 1038.901733 -2.701556 -3.136130 -4.720522 
-564.955933 285.194275 1041.390625 -2.769184 1.007855 -5.534488 
-537.296143 273.249695 1029.976563 -3.301301 -2.492264 -4.729088 
-554.717712 283.487915 1036.382324 -2.209126 1.121284 -5.756242 
-454.041626 276.965576 990.729919 -0.301458 3.379185 -5.286431 
-529.122070 263.011414 1059.346680 3.400008 -0.620791 -5.246820 
-556.424072 300.551636 1047.189697 -1.635753 4.192543 -4.383623 
-472.811737 263.011414 985.768494 1.268238 -1.375068 -5.923418 
-551.947693 273.249695 1038.508423 -2.664838 -3.129603 -4.751364 
-522.469788 276.662415 1069.223145 1.768757 1.705802 -1.915799 
-462.573486 285.194275 999.902100 -1.097216 4.300777 -4.443196 
-551.304932 272.693542 1038.508423 -2.794540 -3.182333 -4.640598 
-522.296570 274.638977 1067.516846 3.426456 3.569990 -3.869912 
-563.249573 285.194275 1040.488281 -2.741459 1.220865 -5.483282 
-483.049988 266.424194 987.117493 -1.441770 2.795528 -5.430913 
-454.041626 260.156555 1000.968140 0.688561 -5.572221 -2.817155 
-558.130432 301.467773 1048.746582 -1.628714 4.346118 -4.234597 
-553.011353 283.487915 1035.686768 -2.218179 1.238947 -5.709906 
-522.296570 276.482361 1069.223145 3.426788 3.494541 -3.930528 
-455.747986 278.368774 991.901733 -0.550463 3.907102 -4.889174 
-551.304932 273.249695 1038.140869 -2.752154 -3.032731 -4.764490 
-471.105347 261.305054 987.105469 1.877822 -3.395095 -4.886663 
-522.296570 274.956055 1067.811768 3.433961 3.570733 -3.860901 
-556.424072 302.112793 1048.746582 -1.622935 4.404256 -4.174292 
-460.867126 285.194275 999.434814 -1.304384 4.164242 -4.519170 
-481.343628 266.424194 986.714539 -1.052560 2.992666 -5.406061 
-568.677002 286.900696 1043.627441 -2.704496 1.079208 -5.560114 
-535.947571 273.249695 1029.007446 -3.425539 -2.452770 -4.659149 
-454.041626 278.368774 991.691467 -0.639418 3.608259 -5.101439 
-471.105347 263.011414 986.161926 1.592440 -1.974781 -5.649247 
-554.717712 285.042908 1036.802002 -2.094855 1.733531 -5.658308 
-558.130432 302.258057 1049.577637 -1.577048 4.477731 -4.114483 
-568.368713 286.900696 1043.481934 -2.724579 1.086608 -5.553884 
-455.747986 258.989929 1002.674561 1.256476 -5.375625 -2.993133 
-405.409973 277.515625 1004.739685 2.366867 -3.349738 -4.756851 
-549.598572 273.249695 1037.125488 -2.785192 -2.912964 -4.812581 
-467.692627 285.259155 1000.968140 -0.786999 4.551538 -4.257647 
-537.653931 273.734619 1029.976563 -3.279509 -2.328033 -4.826706 
-455.747986 259.598694 1001.575745 0.881514 -5.408442 -3.070401 
-554.569031 285.194275 1036.802002 -1.980346 2.149925 -5.559003 
-537.653931 274.956055 1029.408936 -3.349004 -2.109142 -4.878407 
-465.986237 285.554810 1000.968140 -0.829514 4.353756 -4.453046 
-556.424072 302.258057 1048.904297 -1.128374 3.157869 -2.858361 
-405.409973 276.858337 1005.234131 2.315221 -3.621225 -4.579935 
-483.049988 266.786377 987.317200 -1.428285 3.093149 -5.269532 
-520.590210 269.836914 1064.920776 2.995399 2.986459 -4.639614 
-472.811737 264.717773 985.688354 0.708133 0.611002 -6.159459 
-551.304932 274.956055 1037.074707 -2.584283 -2.904889 -4.930244 
-459.160767 278.533325 992.436279 -0.631899 4.248209 -4.584178 
-566.662292 286.900696 1042.613281 -2.671755 1.505608 -5.463998 
-553.011353 285.194275 1036.242676 -2.054154 2.065460 -5.559451 
-464.279846 285.896790 1000.968140 -0.958218 4.273280 -4.503152 
-454.041626 259.339539 1002.674561 1.167423 -5.602059 -2.592356 
-454.041626 259.598694 1002.113037 0.966989 -5.607131 -2.662362 
-481.343628 267.411438 987.317200 -0.959304 3.268624 -5.274520 
-519.239136 269.836914 1065.810303 2.965862 3.263410 -4.472071 
-530.828491 271.543274 1057.912109 4.548817 1.514622 -4.044736 
-457.454376 278.768860 992.436279 -0.616784 4.119296 -4.703241 
-522.296570 276.662415 1069.373535 1.735145 1.741967 -2.080936 
-568.368713 287.520447 1043.627441 -2.648092 1.505858 -5.491950 
-471.105347 264.717773 985.881714 0.957507 0.080534 -6.111465 
-551.360352 283.487915 1035.095703 -2.013674 1.001394 -5.856078 
-518.883850 269.511719 1065.810303 3.048105 3.124114 -4.510983 
-529.744263 271.543274 1058.984863 4.171775 1.771276 -4.350917 
-483.049988 268.130554 988.135864 -1.370209 3.348428 -5.119637 
-467.685669 286.900696 1002.674561 -1.063384 4.358310 -4.397841 
-576.554993 293.726135 1050.453003 -3.694293 2.177551 -4.563692 
-570.211609 278.368774 1047.040283 -3.158884 -3.614304 -4.050523 
-425.033264 278.368774 993.616577 1.081194 1.846616 -5.900867 
-551.304932 283.487915 1035.077637 -1.961540 0.961056 -5.886414 
-555.104797 271.543274 1041.921143 -2.935900 -3.969298 -3.884200 
-576.900574 293.039368 1050.453003 -4.222786 1.841450 -4.180941 
-567.624817 288.607056 1043.627441 -2.363381 2.008671 -5.458000 
-467.692627 286.898926 1002.674561 -1.007811 4.365595 -4.398862 
-521.095459 271.543274 1065.810303 3.202601 3.336509 -4.250856 
-570.075073 278.253113 1047.040283 -3.176394 -3.768377 -3.895883 
-481.343628 268.130554 987.769897 -0.936936 3.429491 -5.171915 
-465.986237 286.900696 1002.292664 -0.980995 4.315959 -4.457938 
-576.900574 293.726135 1050.758545 -4.430009 1.981152 -3.862919 
-384.933472 286.047485 1021.112549 5.220359 -1.290709 -3.248324 
-455.747986 279.038635 992.436279 -0.693917 3.902961 -4.873965 
-470.611816 261.305054 987.317200 2.166226 -3.671199 -4.529342 
-549.598572 283.487915 1034.496826 -2.062163 1.317083 -5.770997 
-566.662292 288.607056 1043.229004 -2.365412 2.072002 -5.438954 
-531.355164 271.543274 1026.563721 -3.242522 -3.307633 -4.234754 
-570.075073 278.368774 1046.933105 -3.237031 -3.520989 -4.070840 
-520.590210 271.071350 1065.810303 3.060341 3.288366 -4.391662 
-554.717712 271.264404 1041.921143 -1.994827 -2.818521 -2.656131 
-530.828491 273.249695 1058.612061 4.830299 1.384298 -3.747153 
-454.041626 279.413818 992.436279 -0.939698 3.634082 -5.037193 
-554.717712 271.543274 1041.627563 -2.876968 -3.891235 -3.998866 
-575.374695 295.432556 1050.453003 -3.442318 2.751506 -4.447716 
-384.933472 285.284180 1021.444641 5.329600 -1.505690 -2.953604 
-551.304932 283.574463 1035.095703 -1.989261 1.498422 -5.761412 
-464.279846 286.900696 1001.907776 -1.061520 4.228252 -4.523371 
-469.398987 262.048401 987.317200 2.532665 -3.416416 -4.507577 
-518.883850 269.836914 1066.042969 3.071594 3.316652 -4.350325 
-530.828491 271.064697 1026.563721 -2.976605 -3.690051 -4.108115 
-576.900574 295.432556 1051.746826 -4.224526 2.488331 -3.790646 
-565.198364 286.900696 1041.921143 -2.524871 1.587869 -5.519610 
-481.085693 261.305054 985.610779 -0.522654 -0.628819 -3.267268 
-465.986237 287.308350 1002.674561 -1.023411 4.207880 -4.552171 
-549.834900 285.194275 1035.095703 -1.869044 2.057968 -5.622728 
-553.011353 270.079163 1041.921143 -2.841721 -4.127562 -3.782960 
-530.508240 273.249695 1058.984863 4.479053 1.603023 -4.086418 
-530.828491 271.543274 1026.168213 -3.161017 -3.304346 -4.301128 
-564.955933 286.900696 1041.817871 -2.462533 1.564577 -5.563228 
-549.598572 285.194275 1035.021729 -1.854282 1.933310 -5.681725 
-553.011353 271.543274 1040.432373 -2.783717 -3.862360 -4.090531 
-464.279846 287.727539 1002.674561 -1.125992 4.146346 -4.582122 
-460.417419 280.075195 994.142700 -0.717406 4.446180 -4.380493 
-452.335266 260.385376 1000.968140 0.934150 -5.683724 -2.499362 
-520.590210 271.543274 1066.172607 3.080376 3.458742 -4.241224 
-573.662476 281.781555 1047.040283 -3.780837 -2.310660 -4.414152 
-530.953186 274.956055 1058.984863 2.633429 0.573571 -1.575988 
-469.398987 263.011414 986.706787 2.242496 -2.342073 -5.227721 
-459.160767 280.075195 993.933472 -0.761343 4.383723 -4.436287 
-479.637238 261.305054 985.379272 -0.558776 -2.636053 -5.111672 
-468.296112 263.011414 987.317200 2.943812 -2.862572 -4.603447 
-551.304932 285.194275 1035.585693 -1.990285 2.133541 -5.541898 
-418.207764 286.047485 995.386780 1.803414 -0.875551 -5.925994 
-520.603455 274.956055 1069.223145 3.171992 3.643367 -4.015521 
-462.573486 286.334595 1000.968140 -1.222995 4.137204 -4.564375 
-575.912415 297.138916 1052.159424 -3.628816 3.352906 -3.865308 
-457.454376 280.075195 993.627197 -0.835281 4.256057 -4.545594 
-406.263153 273.249695 1008.941650 1.809911 -4.940374 -3.434166 
-563.249573 286.900696 1041.034180 -2.464550 1.978751 -5.417536 
-573.487793 281.539673 1047.040283 -3.509259 -2.832787 -4.345662 
-518.883850 271.543274 1067.427490 3.083685 3.549881 -4.163156 
-450.628876 260.703003 1000.968140 1.219208 -5.753829 -2.196326 
-529.122070 269.887817 1026.563721 -1.757713 -3.036146 -2.945244 
-437.831055 286.047485 996.345520 1.137357 3.104098 -5.339619 
-573.487793 281.781555 1046.902588 -3.500620 -2.236277 -4.686717 
-479.637238 263.011414 985.179749 -0.566733 0.315441 -6.106115 
-564.955933 287.231262 1041.921143 -2.458285 1.966395 -5.432412 
-450.628876 261.305054 999.449341 1.011614 -5.727312 -2.366412 
-520.590210 274.956055 1069.233032 3.069596 3.649390 -4.091082 
-576.900574 295.989136 1052.159424 -4.335337 2.700291 -3.496730 
-553.011353 286.550354 1036.802002 -1.858186 2.354738 -5.516542 
-530.828491 274.383545 1058.984863 5.002605 1.190086 -3.569672 
-459.160767 280.284302 994.142700 -0.817561 4.417056 -4.392447 
-529.122070 271.543274 1024.948242 -2.727422 -3.840474 -4.137554 
-469.398987 264.717773 986.214722 1.685542 -0.716655 -5.845011 
-563.659668 288.607056 1041.921143 -2.184973 2.402449 -5.373556 
-575.194214 295.636230 1050.453003 -3.159035 3.002772 -4.500588 
-460.867737 286.900696 1000.968140 -1.332134 4.070984 -4.596306 
-385.073151 286.900696 1020.591492 5.199122 -0.992941 -3.382085 
-520.590210 276.662415 1070.764893 3.205191 3.608064 -4.022898 
-452.660675 259.598694 1002.674561 1.045653 -5.728262 -2.358453 
-517.177490 269.836914 1067.338379 3.401190 3.238636 -4.159280 
-571.203674 281.781555 1045.333984 -3.115179 -2.289129 -4.927844 
-563.249573 288.607056 1041.765991 -2.143585 2.355197 -5.415818 
-457.454376 280.623657 994.142700 -0.968409 4.239356 -4.533373 
-520.379395 276.662415 1070.929443 3.168034 3.685099 -3.982091 
-553.011353 269.836914 1042.205811 -0.981310 -1.421766 -1.209903 
-575.194214 297.138916 1051.523193 -3.261827 3.311491 -4.192781 
-529.122070 273.249695 1060.448730 4.143782 2.109788 -4.216816 
-460.867126 286.900696 1000.967957 -1.458871 4.195385 -4.441850 
-518.883850 275.398438 1070.929443 3.174271 3.732543 -3.932494 
-467.692627 264.717773 986.909729 2.482441 -1.571580 -5.484200 
-516.974609 269.836914 1067.516846 3.653580 3.155478 -4.012711 
-532.856873 273.249695 1026.563721 -3.593374 -2.590121 -4.451167 
-564.955933 288.607056 1042.450928 -2.290870 2.305271 -5.365091 
-477.930847 261.305054 985.343811 0.143945 -1.731523 -5.927680 
-532.534851 272.837708 1026.563721 -3.460134 -2.897189 -4.367575 
-518.883850 274.956055 1070.518311 3.123110 3.679364 -4.022565 
-469.398987 261.305054 987.984192 2.754537 -4.011941 -3.850204 
-460.867126 286.900879 1000.968140 -1.430464 4.112209 -4.512382 
-573.602539 297.138916 1050.453003 -2.755767 3.273623 -4.577740 
-460.001465 281.781555 995.849060 -0.863890 4.439600 -4.360168 
-552.658203 269.836914 1041.921143 -1.442912 -2.034007 -1.938093 
-468.243103 261.305054 989.023560 3.396923 -4.126501 -3.207619 
-549.598572 285.392395 1035.095703 -1.912742 2.326731 -5.509065 
-518.765137 271.543274 1067.516846 3.159842 3.542011 -4.112475 
-532.534851 273.249695 1026.308350 -3.550275 -2.612344 -4.475171 
-477.930847 263.011414 985.105347 0.012090 0.270684 -6.133324 
-520.590210 276.845642 1070.929443 1.627190 1.862972 -2.018905 
-462.573486 286.900696 1001.463989 -1.291671 4.075347 -4.604034 
-459.160767 281.781555 995.679138 -0.979207 4.393380 -4.381260 
-425.886444 278.368774 993.479736 0.844825 1.912140 -5.919647 
-517.177490 270.052673 1067.516846 3.390036 3.393161 -4.051547 
-551.304932 269.836914 1040.888672 -1.491483 -1.947245 -1.978994 
-479.711243 264.717773 985.610779 -0.665530 2.147720 -5.820056 
-559.836792 283.195129 1038.508423 -2.673388 0.353553 -5.660800 
-530.828491 274.956055 1059.172241 2.490795 0.588412 -1.797819 
-575.194214 297.850708 1052.159424 -3.351513 3.602249 -3.898753 
-462.573486 288.242920 1002.674561 -1.386354 4.062399 -4.584672 
-552.528564 286.900696 1036.802002 -1.792289 2.571279 -5.440853 
-404.556763 276.662415 1005.846680 2.303764 -3.783664 -4.454691 
-474.518127 266.424194 986.091797 -0.069536 2.420527 -5.775329 
-457.454376 281.781555 995.261108 -1.190062 4.245112 -4.471253 
-479.637238 264.717773 985.604309 -0.442822 1.847303 -5.975332 
-563.166992 283.487915 1040.214844 -2.839904 0.275139 -5.575012 
-533.963135 274.956055 1026.563721 -3.775023 -2.188687 -4.515913 
-570.075073 280.411804 1045.333984 -3.229182 -2.703176 -4.655924 
-452.335266 259.657471 1002.674561 1.165687 -5.722444 -2.306593 
-520.774780 273.249695 1067.516846 3.194231 3.627956 -4.011902 
-574.053711 298.845276 1052.159424 -2.823588 4.032596 -3.835609 
-472.811737 266.424194 986.078857 0.110912 1.897799 -5.953009 
-455.747986 280.075195 993.290222 -0.933274 4.021207 -4.735342 
-529.667419 274.956055 1060.691284 3.042168 1.309860 -2.593904 
-551.304932 286.900696 1036.395020 -1.911563 2.587992 -5.396205 
-419.060974 286.047485 995.200500 1.041963 -0.841914 -6.127290 
-573.487793 297.225769 1050.453003 -2.433829 3.492121 -4.605758 
-518.366882 274.956055 1070.929443 3.244737 3.698772 -3.905314 
-532.534851 274.956055 1025.375977 -3.706727 -2.186241 -4.567137 
-450.628876 260.044922 1002.674561 1.492073 -5.717742 -2.107672 
-570.075073 281.781555 1044.647705 -3.116529 -1.909588 -5.087575 
-454.041626 280.075195 992.919128 -1.149065 3.700000 -4.945147 
-573.487793 298.845276 1051.769775 -2.581088 3.868018 -4.178894 
-520.590210 273.100403 1067.516846 3.027920 3.695046 -4.076733 
-477.930847 264.717773 985.500427 -0.175630 1.737476 -6.013655 
-561.543213 283.487915 1039.374634 -2.805466 0.499545 -5.566758 
-471.105347 266.424194 986.114746 0.442371 1.440659 -6.024546 
-549.598572 286.900696 1035.777344 -1.805901 2.723909 -5.357351 
-406.263153 273.454163 1008.646851 1.800143 -4.935336 -3.446434 
-464.279846 288.607056 1003.454224 -1.223872 4.119944 -4.581610 
-572.154663 280.075195 1047.040283 -3.262248 -3.256223 -4.245144 
-576.900574 297.138916 1053.153442 -4.377086 3.062019 -3.124466 
-392.612152 288.607056 1005.341614 3.893395 -3.731006 -3.209359 
-455.747986 281.072937 994.142700 -1.156385 3.987247 -4.714827 
-571.781433 279.732849 1047.040283 -3.172401 -3.537989 -4.101985 
-462.573486 288.607056 1002.989807 -1.390696 3.977525 -4.658369 
-518.883850 271.642212 1067.516846 3.064862 3.662284 -4.083112 
-559.836792 283.487915 1038.540527 -2.538474 0.908210 -5.657911 
-551.304932 287.715088 1036.802002 -1.802611 2.799065 -5.327581 
-530.697266 273.249695 1024.857422 -3.327368 -2.927741 -4.445731 
-448.922485 261.108887 1000.968140 1.443358 -5.826972 -1.854403 
-571.781433 280.075195 1046.766846 -3.177565 -3.121934 -4.416278 
-438.684265 286.900696 996.629578 1.245988 2.893148 -5.434171 
-529.122070 271.650330 1024.857422 -2.922565 -3.374266 -4.403810 
-575.903442 298.845276 1053.865723 -3.618998 4.133819 -2.927699 
-448.922485 261.305054 1000.349609 1.402210 -5.767198 -2.041876 
-454.041626 281.654785 994.142700 -1.385432 3.734971 -4.858236 
-576.900574 297.817444 1053.865723 -4.354965 3.402310 -2.817637 
-562.659241 285.194275 1040.214844 -2.588430 1.328863 -5.549253 
-575.194214 298.845276 1053.109131 -3.253350 4.121621 -3.337129 
-549.787537 288.607056 1036.802002 -1.666098 3.089844 -5.208198 
-476.224487 261.305054 985.523438 0.838574 -2.515416 -5.469471 
-529.122070 273.249695 1023.692627 -3.170578 -2.944234 -4.530895 
-570.075073 280.075195 1045.549805 -3.124557 -3.190195 -4.407498 
-474.518127 268.130554 986.977417 -0.506951 2.871548 -5.564411 
-448.160919 261.305054 1000.968140 1.624337 -5.781343 -1.839004 
-561.543213 285.194275 1039.710083 -2.513631 1.486761 -5.551003 
-549.598572 288.607056 1036.744141 -1.637435 2.997234 -5.273850 
-455.747986 281.781555 994.754150 -1.377152 4.005747 -4.637938 
-476.224487 263.011414 985.186523 0.547013 -0.011438 -6.118797 
-531.885437 274.956055 1024.857422 -3.658252 -2.194890 -4.603312 
-530.828491 273.412903 1024.857422 -3.483425 -2.606621 -4.527715 
-518.883850 276.662415 1072.154785 3.228974 3.860074 -3.755574 
-475.726440 261.305054 985.610779 0.538432 -0.891155 -3.298797 
-571.781433 281.781555 1045.693359 -3.176341 -2.387776 -4.817312 
-472.811737 268.130554 986.825012 -0.330289 2.634012 -5.692425 
-571.781433 298.308350 1050.453003 -2.001621 3.567574 -4.751513 
-517.177490 271.543274 1068.783325 3.366229 3.479166 -3.998136 
-454.041626 281.781555 994.237000 -1.426183 3.723150 -4.854214 
-559.836792 285.194275 1038.902832 -2.412939 1.652393 -5.524520 
