139.8 100.2 70.2 100.2 105 100.2 1.3
139.8 100.2 70.2 100.2 105 100.2 1.5
139.8 100.2 70.2 100.2 105 100.2 1.7
139.8 100.2 70.2 100.2 105 100.2 1.9
139.8 100.2 70.2 100.2 105 100.2 2.1
139.8 100.2 70.2 100.2 105 100.2 2.3
139.8 100.2 70.2 100.2 105 100.2 2.5
139.8 100.2 70.2 100.2 105 100.2 2.7
139.8 100.2 70.2 100.2 105 100.2 2.9
139.8 100.2 70.2 100.2 105 100.2 3.1
139.8 100.2 70.2 100.2 105 100.2 3.3
139.8 100.2 70.2 100.2 105 100.2 3.5
139.8 100.2 70.2 100.2 105 100.2 3.7
139.8 100.2 70.2 100.2 105 100.2 3.9
139.8 100.2 70.2 100.2 105 100.2 4.1
139.8 100.2 70.2 100.2 105 100.2 4.3
139.8 100.2 70.2 100.2 105 100.2 4.5
139.8 100.2 70.2 100.2 105 100.2 4.7
139.8 100.2 70.2 100.2 105 100.2 4.9
139.8 100.2 70.2 100.2 105 100.2 5.1
124.503 103.6 85.497 100.2 105 100.2 5.3
124.841 103.6 85.159 100.2 105 100.2 5.5
125.178 103.6 84.822 100.2 105 100.2 5.7
125.515 103.6 84.485 100.2 105 100.2 5.9
125.853 103.6 84.147 100.2 105 100.2 6.1
126.19 103.6 83.81 100.2 105 100.2 6.3
126.49 103.6 83.51 100.2 105 100.2 6.5
126.785 103.6 83.215 100.2 105 100.2 6.7
127.08 103.6 82.92 100.2 105 100.2 6.9
127.375 103.6 82.625 100.2 105 100.2 7.1
127.671 103.6 82.329 100.2 105 100.2 7.3
127.966 103.6 82.034 100.2 105 100.2 7.5
128.255 103.6 81.745 100.2 105 100.2 7.7
128.516 103.6 81.484 100.2 105 100.2 7.9
128.776 103.6 81.224 100.2 105 100.2 8.1
129.036 103.6 80.964 100.2 105 100.2 8.3
129.296 103.6 80.704 100.2 105 100.2 8.5
129.557 103.6 80.443 100.2 105 100.2 8.7
129.817 103.6 80.183 100.2 105 100.2 8.9
130.077 103.6 79.923 100.2 105 100.2 9.1
130.311 103.6 79.689 100.2 105 100.2 9.3
130.542 103.6 79.458 100.2 105 100.2 9.5
130.772 103.6 79.228 100.2 105 100.2 9.7
131.002 103.6 78.998 100.2 105 100.2 9.9
131.233 103.6 78.767 100.2 105 100.2 10.1
131.463 103.6 78.537 100.2 105 100.2 10.3
131.693 103.6 78.307 100.2 105 100.2 10.5
131.923 103.6 78.077 100.2 105 100.2 10.7
132.127 103.6 77.873 100.2 105 100.2 10.9
132.331 103.6 77.669 100.2 105 100.2 11.1
132.536 103.6 77.464 100.2 105 100.2 11.3
132.74 103.6 77.26 100.2 105 100.2 11.5
132.944 103.6 77.056 100.2 105 100.2 11.7
133.148 103.6 76.852 100.2 105 100.2 11.9
133.352 103.6 76.648 100.2 105 100.2 12.1
133.556 103.6 76.444 100.2 105 100.2 12.3
133.746 103.6 76.254 100.2 105 100.2 12.5
133.927 103.6 76.073 100.2 105 100.2 12.7
134.109 103.6 75.891 100.2 105 100.2 12.9
134.29 103.6 75.71 100.2 105 100.2 13.1
134.471 103.6 75.529 100.2 105 100.2 13.3
134.652 103.6 75.348 100.2 105 100.2 13.5
134.833 103.6 75.167 100.2 105 100.2 13.7
135.015 103.6 74.985 100.2 105 100.2 13.9
135.196 103.6 74.804 100.2 105 100.2 14.1
135.361 103.6 74.639 100.2 105 100.2 14.3
135.522 103.6 74.478 100.2 105 100.2 14.5
135.682 103.6 74.318 100.2 105 100.2 14.7
135.843 103.6 74.157 100.2 105 100.2 14.9
136.003 103.6 73.997 100.2 105 100.2 15.1
136.163 103.6 73.837 100.2 105 100.2 15.3
136.324 103.6 73.676 100.2 105 100.2 15.5
136.484 103.6 73.516 100.2 105 100.2 15.7
136.645 103.6 73.355 100.2 105 100.2 15.9
136.797 103.6 73.203 100.2 105 100.2 16.1
136.939 103.6 73.061 100.2 105 100.2 16.3
137.081 103.6 72.919 100.2 105 100.2 16.5
137.222 103.6 72.778 100.2 105 100.2 16.7
137.364 103.6 72.636 100.2 105 100.2 16.9
137.505 103.6 72.495 100.2 105 100.2 17.1
137.647 103.6 72.353 100.2 105 100.2 17.3
137.789 103.6 72.211 100.2 105 100.2 17.5
137.93 103.6 72.07 100.2 105 100.2 17.7
138.072 103.6 71.928 100.2 105 100.2 17.9
138.203 103.6 71.797 100.2 105 100.2 18.1
138.327 103.6 71.673 100.2 105 100.2 18.3
138.451 103.6 71.549 100.2 105 100.2 18.5
138.576 103.6 71.424 100.2 105 100.2 18.7
138.7 103.6 71.3 100.2 105 100.2 18.9
138.824 103.6 71.176 100.2 105 100.2 19.1
138.949 103.6 71.051 100.2 105 100.2 19.3
139.073 103.6 70.927 100.2 105 100.2 19.5
139.197 103.6 70.803 100.2 105 100.2 19.7
139.322 103.6 70.678 100.2 105 100.2 19.9
139.439 103.6 70.561 100.2 105 100.2 20.1
139.547 103.6 70.453 100.2 105 100.2 20.3
139.655 103.6 70.345 100.2 105 100.2 20.5
139.764 103.6 70.236 100.2 105 100.2 20.7
139.872 103.6 70.128 100.2 105 100.2 20.9
139.98 103.6 70.02 100.2 105 100.2 21.1
140.089 103.6 69.911 100.2 105 100.2 21.3
140.197 103.6 69.803 100.2 105 100.2 21.5
140.305 103.6 69.695 100.2 105 100.2 21.7
140.413 103.6 69.587 100.2 105 100.2 21.9
140.522 103.6 69.478 100.2 105 100.2 22.1
140.616 103.6 69.384 100.2 105 100.2 22.3
140.709 103.6 69.291 100.2 105 100.2 22.5
140.803 103.6 69.197 100.2 105 100.2 22.7
140.896 103.6 69.104 100.2 105 100.2 22.9
140.989 103.6 69.011 100.2 105 100.2 23.1
141.082 103.6 68.918 100.2 105 100.2 23.3
141.175 103.6 68.825 100.2 105 100.2 23.5
141.269 103.6 68.731 100.2 105 100.2 23.7
141.362 103.6 68.638 100.2 105 100.2 23.9
141.455 103.6 68.545 100.2 105 100.2 24.1
141.547 103.6 68.453 100.2 105 100.2 24.3
141.626 103.6 68.374 100.2 105 100.2 24.5
141.706 103.6 68.294 100.2 105 100.2 24.7
141.785 103.6 68.215 100.2 105 100.2 24.9
141.864 103.6 68.136 100.2 105 100.2 25.1
141.943 103.6 68.057 100.2 105 100.2 25.3
142.022 103.6 67.978 100.2 105 100.2 25.5
142.101 103.6 67.899 100.2 105 100.2 25.7
142.18 103.6 67.82 100.2 105 100.2 25.9
142.259 103.6 67.741 100.2 105 100.2 26.1
142.338 103.6 67.662 100.2 105 100.2 26.3
142.417 103.6 67.583 100.2 105 100.2 26.5
142.484 103.6 67.516 100.2 105 100.2 26.7
142.549 103.6 67.451 100.2 105 100.2 26.9
142.615 103.6 67.385 100.2 105 100.2 27.1
142.681 103.6 67.319 100.2 105 100.2 27.3
142.746 103.6 67.254 100.2 105 100.2 27.5
142.812 103.6 67.188 100.2 105 100.2 27.7
142.877 103.6 67.123 100.2 105 100.2 27.9
142.943 103.6 67.057 100.2 105 100.2 28.1
143.008 103.6 66.992 100.2 105 100.2 28.3
143.074 103.6 66.926 100.2 105 100.2 28.5
143.139 103.6 66.861 100.2 105 100.2 28.7
143.198 103.6 66.802 100.2 105 100.2 28.9
143.25 103.6 66.75 100.2 105 100.2 29.1
143.303 103.6 66.697 100.2 105 100.2 29.3
143.355 103.6 66.645 100.2 105 100.2 29.5
143.408 103.6 66.592 100.2 105 100.2 29.7
143.46 103.6 66.54 100.2 105 100.2 29.9
143.513 103.6 66.487 100.2 105 100.2 30.1
143.565 103.6 66.435 100.2 105 100.2 30.3
143.617 103.6 66.383 100.2 105 100.2 30.5
143.67 103.6 66.33 100.2 105 100.2 30.7
143.722 103.6 66.278 100.2 105 100.2 30.9
143.775 103.6 66.225 100.2 105 100.2 31.1
143.815 103.6 66.185 100.2 105 100.2 31.3
143.855 103.6 66.145 100.2 105 100.2 31.5
143.895 103.6 66.105 100.2 105 100.2 31.7
143.935 103.6 66.065 100.2 105 100.2 31.9
143.975 103.6 66.025 100.2 105 100.2 32.1
144.015 103.6 65.985 100.2 105 100.2 32.3
144.054 103.6 65.946 100.2 105 100.2 32.5
144.094 103.6 65.906 100.2 105 100.2 32.7
144.134 103.6 65.866 100.2 105 100.2 32.9
144.174 103.6 65.826 100.2 105 100.2 33.1
144.214 103.6 65.786 100.2 105 100.2 33.3
144.251 103.6 65.749 100.2 105 100.2 33.5
144.279 103.6 65.721 100.2 105 100.2 33.7
144.306 103.6 65.694 100.2 105 100.2 33.9
144.334 103.6 65.666 100.2 105 100.2 34.1
144.361 103.6 65.639 100.2 105 100.2 34.3
144.389 103.6 65.611 100.2 105 100.2 34.5
144.417 103.6 65.583 100.2 105 100.2 34.7
144.444 103.6 65.556 100.2 105 100.2 34.9
144.472 103.6 65.528 100.2 105 100.2 35.1
144.499 103.6 65.501 100.2 105 100.2 35.3
144.527 103.6 65.473 100.2 105 100.2 35.5
144.554 103.6 65.446 100.2 105 100.2 35.7
144.578 103.6 65.422 100.2 105 100.2 35.9
144.593 103.6 65.407 100.2 105 100.2 36.1
144.609 103.6 65.391 100.2 105 100.2 36.3
144.624 103.6 65.376 100.2 105 100.2 36.5
144.64 103.6 65.36 100.2 105 100.2 36.7
144.655 103.6 65.345 100.2 105 100.2 36.9
144.67 103.6 65.33 100.2 105 100.2 37.1
144.686 103.6 65.314 100.2 105 100.2 37.3
144.701 103.6 65.299 100.2 105 100.2 37.5
144.717 103.6 65.283 100.2 105 100.2 37.7
144.732 103.6 65.268 100.2 105 100.2 37.9
144.747 103.6 65.253 100.2 105 100.2 38.1
144.758 103.6 65.242 100.2 105 100.2 38.3
144.762 103.6 65.238 100.2 105 100.2 38.5
144.765 103.6 65.235 100.2 105 100.2 38.7
144.769 103.6 65.231 100.2 105 100.2 38.9
144.772 103.6 65.228 100.2 105 100.2 39.1
144.775 103.6 65.225 100.2 105 100.2 39.3
144.779 103.6 65.221 100.2 105 100.2 39.5
144.782 103.6 65.218 100.2 105 100.2 39.7
144.786 103.6 65.214 100.2 105 100.2 39.9
144.789 103.6 65.211 100.2 105 100.2 40.1
144.793 103.6 65.207 100.2 105 100.2 40.3
144.796 103.6 65.204 100.2 105 100.2 40.5
144.794 100.2 65.206 103.6 105 100.2 40.7
144.785 100.2 65.215 103.6 105 100.2 40.9
144.776 100.2 65.224 103.6 105 100.2 41.1
144.768 100.2 65.232 103.6 105 100.2 41.3
144.759 100.2 65.241 103.6 105 100.2 41.5
144.751 100.2 65.249 103.6 105 100.2 41.7
144.742 100.2 65.258 103.6 105 100.2 41.9
144.733 100.2 65.267 103.6 105 100.2 42.1
144.725 100.2 65.275 103.6 105 100.2 42.3
144.716 100.2 65.284 103.6 105 100.2 42.5
144.708 100.2 65.292 103.6 105 100.2 42.7
144.699 100.2 65.301 103.6 105 100.2 42.9
144.685 100.2 65.315 103.6 105 100.2 43.1
144.665 100.2 65.335 103.6 105 100.2 43.3
144.644 100.2 65.356 103.6 105 100.2 43.5
144.623 100.2 65.377 103.6 105 100.2 43.7
144.603 100.2 65.397 103.6 105 100.2 43.9
144.582 100.2 65.418 103.6 105 100.2 44.1
144.561 100.2 65.439 103.6 105 100.2 44.3
144.541 100.2 65.459 103.6 105 100.2 44.5
144.52 100.2 65.48 103.6 105 100.2 44.7
144.499 100.2 65.501 103.6 105 100.2 44.9
144.479 100.2 65.521 103.6 105 100.2 45.1
144.458 100.2 65.542 103.6 105 100.2 45.3
144.431 100.2 65.569 103.6 105 100.2 45.5
144.398 100.2 65.602 103.6 105 100.2 45.7
144.365 100.2 65.635 103.6 105 100.2 45.9
144.333 100.2 65.667 103.6 105 100.2 46.1
144.3 100.2 65.7 103.6 105 100.2 46.3
144.267 100.2 65.733 103.6 105 100.2 46.5
144.234 100.2 65.766 103.6 105 100.2 46.7
144.201 100.2 65.799 103.6 105 100.2 46.9
144.168 100.2 65.832 103.6 105 100.2 47.1
144.135 100.2 65.865 103.6 105 100.2 47.3
144.102 100.2 65.898 103.6 105 100.2 47.5
144.069 100.2 65.931 103.6 105 100.2 47.7
144.028 100.2 65.972 103.6 105 100.2 47.9
143.983 100.2 66.017 103.6 105 100.2 48.1
143.937 100.2 66.063 103.6 105 100.2 48.3
143.892 100.2 66.108 103.6 105 100.2 48.5
143.847 100.2 66.153 103.6 105 100.2 48.7
143.802 100.2 66.198 103.6 105 100.2 48.9
143.756 100.2 66.244 103.6 105 100.2 49.1
143.711 100.2 66.289 103.6 105 100.2 49.3
143.666 100.2 66.334 103.6 105 100.2 49.5
143.621 100.2 66.379 103.6 105 100.2 49.7
143.575 100.2 66.425 103.6 105 100.2 49.9
143.53 100.2 66.47 100.2 105 100.2 50.1
143.472 100.2 66.528 103.6 105 100.2 50.3
143.414 100.2 66.586 103.6 105 100.2 50.5
143.356 100.2 66.644 103.6 105 100.2 50.7
143.298 100.2 66.702 103.6 105 100.2 50.9
143.24 100.2 66.76 103.6 105 100.2 51.1
143.182 100.2 66.818 103.6 105 100.2 51.3
143.124 100.2 66.876 103.6 105 100.2 51.5
143.066 100.2 66.934 103.6 105 100.2 51.7
143.007 100.2 66.993 103.6 105 100.2 51.9
142.949 100.2 67.051 103.6 105 100.2 52.1
142.891 100.2 67.109 103.6 105 100.2 52.3
142.827 100.2 67.173 103.6 105 100.2 52.5
142.755 100.2 67.245 103.6 105 100.2 52.7
142.684 100.2 67.316 103.6 105 100.2 52.9
142.613 100.2 67.387 103.6 105 100.2 53.1
142.541 100.2 67.459 103.6 105 100.2 53.3
142.47 100.2 67.53 103.6 105 100.2 53.5
142.399 100.2 67.601 103.6 105 100.2 53.7
142.327 100.2 67.673 103.6 105 100.2 53.9
142.256 100.2 67.744 103.6 105 100.2 54.1
142.185 100.2 67.815 103.6 105 100.2 54.3
142.113 100.2 67.887 103.6 105 100.2 54.5
142.039 100.2 67.961 103.6 105 100.2 54.7
141.954 100.2 68.046 103.6 105 100.2 54.9
141.869 100.2 68.131 103.6 105 100.2 55.1
141.784 100.2 68.216 103.6 105 100.2 55.3
141.698 100.2 68.302 103.6 105 100.2 55.5
141.613 100.2 68.387 103.6 105 100.2 55.7
141.528 100.2 68.472 103.6 105 100.2 55.9
141.443 100.2 68.557 103.6 105 100.2 56.1
141.358 100.2 68.642 103.6 105 100.2 56.3
141.273 100.2 68.727 103.6 105 100.2 56.5
141.187 100.2 68.813 103.6 105 100.2 56.7
141.1 100.2 68.9 103.6 105 100.2 56.9
141.0 100.2 69.0 103.6 105 100.2 57.1
140.9 100.2 69.1 103.6 105 100.2 57.3
140.8 100.2 69.2 103.6 105 100.2 57.5
140.701 100.2 69.299 103.6 105 100.2 57.7
140.601 100.2 69.399 103.6 105 100.2 57.9
140.501 100.2 69.499 103.6 105 100.2 58.1
140.402 100.2 69.598 103.6 105 100.2 58.3
140.302 100.2 69.698 103.6 105 100.2 58.5
140.202 100.2 69.798 103.6 105 100.2 58.7
140.102 100.2 69.898 103.6 105 100.2 58.9
139.995 100.2 70.005 103.6 105 100.2 59.1
139.88 100.2 70.12 103.6 105 100.2 59.3
139.765 100.2 70.235 103.6 105 100.2 59.5
139.65 100.2 70.35 103.6 105 100.2 59.7
139.535 100.2 70.465 103.6 105 100.2 59.9
139.42 100.2 70.58 103.6 105 100.2 60.1
139.305 100.2 70.695 103.6 105 100.2 60.3
139.19 100.2 70.81 103.6 105 100.2 60.5
139.075 100.2 70.925 103.6 105 100.2 60.7
138.96 100.2 71.04 103.6 105 100.2 60.9
138.843 100.2 71.157 103.6 105 100.2 61.1
138.712 100.2 71.288 103.6 105 100.2 61.3
138.58 100.2 71.42 103.6 105 100.2 61.5
138.448 100.2 71.552 103.6 105 100.2 61.7
138.317 100.2 71.683 103.6 105 100.2 61.9
138.185 100.2 71.815 103.6 105 100.2 62.1
138.053 100.2 71.947 103.6 105 100.2 62.3
137.922 100.2 72.078 103.6 105 100.2 62.5
137.79 100.2 72.21 103.6 105 100.2 62.7
137.658 100.2 72.342 103.6 105 100.2 62.9
137.526 100.2 72.474 103.6 105 100.2 63.1
137.376 100.2 72.624 103.6 105 100.2 63.3
137.226 100.2 72.774 103.6 105 100.2 63.5
137.077 100.2 72.923 103.6 105 100.2 63.7
136.927 100.2 73.073 103.6 105 100.2 63.9
136.778 100.2 73.222 103.6 105 100.2 64.1
136.628 100.2 73.372 103.6 105 100.2 64.3
136.479 100.2 73.521 103.6 105 100.2 64.5
136.329 100.2 73.671 103.6 105 100.2 64.7
136.18 100.2 73.82 103.6 105 100.2 64.9
136.021 100.2 73.979 103.6 105 100.2 65.1
135.851 100.2 74.149 103.6 105 100.2 65.3
135.682 100.2 74.318 103.6 105 100.2 65.5
135.513 100.2 74.487 103.6 105 100.2 65.7
135.344 100.2 74.656 103.6 105 100.2 65.9
135.175 100.2 74.825 103.6 105 100.2 66.1
135.006 100.2 74.994 103.6 105 100.2 66.3
134.837 100.2 75.163 103.6 105 100.2 66.5
134.667 100.2 75.333 103.6 105 100.2 66.7
134.491 100.2 75.509 103.6 105 100.2 66.9
134.3 100.2 75.7 103.6 105 100.2 67.1
134.109 100.2 75.891 103.6 105 100.2 67.3
133.919 100.2 76.081 103.6 105 100.2 67.5
133.728 100.2 76.272 103.6 105 100.2 67.7
133.537 100.2 76.463 103.6 105 100.2 67.9
133.346 100.2 76.654 103.6 105 100.2 68.1
133.156 100.2 76.844 103.6 105 100.2 68.3
132.965 100.2 77.035 103.6 105 100.2 68.5
132.758 100.2 77.242 103.6 105 100.2 68.7
132.543 100.2 77.457 103.6 105 100.2 68.9
132.327 100.2 77.673 103.6 105 100.2 69.1
132.112 100.2 77.888 103.6 105 100.2 69.3
131.897 100.2 78.103 103.6 105 100.2 69.5
131.681 100.2 78.319 103.6 105 100.2 69.7
131.466 100.2 78.534 103.6 105 100.2 69.9
131.251 100.2 78.749 103.6 105 100.2 70.1
131.021 100.2 78.979 103.6 105 100.2 70.3
130.779 100.2 79.221 103.6 105 100.2 70.5
130.536 100.2 79.464 103.6 105 100.2 70.7
130.294 100.2 79.706 103.6 105 100.2 70.9
130.051 100.2 79.949 103.6 105 100.2 71.1
129.808 100.2 80.192 103.6 105 100.2 71.3
129.566 100.2 80.434 103.6 105 100.2 71.5
129.323 100.2 80.677 103.6 105 100.2 71.7
129.052 100.2 80.948 103.6 105 100.2 71.9
128.777 100.2 81.223 103.6 105 100.2 72.1
128.502 100.2 81.498 103.6 105 100.2 72.3
128.227 100.2 81.773 103.6 105 100.2 72.5
127.952 100.2 82.048 103.6 105 100.2 72.7
127.677 100.2 82.323 103.6 105 100.2 72.9
127.402 100.2 82.598 103.6 105 100.2 73.1
127.096 100.2 82.904 103.6 105 100.2 73.3
126.783 100.2 83.217 103.6 105 100.2 73.5
126.471 100.2 83.529 103.6 105 100.2 73.7
126.158 100.2 83.842 103.6 105 100.2 73.9
125.845 100.2 84.155 103.6 105 100.2 74.1
125.533 100.2 84.467 103.6 105 100.2 74.3
125.203 100.2 84.797 103.6 105 100.2 74.5
124.845 100.2 85.155 103.6 105 100.2 74.7
124.486 100.2 85.514 103.6 105 100.2 74.9
124.128 100.2 85.872 103.6 105 100.2 75.1
123.77 100.2 86.23 103.6 105 100.2 75.3
123.412 100.2 86.588 103.6 105 100.2 75.5
123.023 100.2 86.977 103.6 105 100.2 75.7
122.609 100.2 87.391 103.6 105 100.2 75.9
122.194 100.2 87.806 103.6 105 100.2 76.1
121.779 100.2 88.221 103.6 105 100.2 76.3
121.365 100.2 88.635 103.6 105 100.2 76.5
120.926 100.2 89.074 103.6 105 100.2 76.7
120.439 100.2 89.561 103.6 105 100.2 76.9
119.951 100.2 90.049 103.6 105 100.2 77.1
119.464 100.2 90.536 103.6 105 100.2 77.3
118.977 100.2 91.023 103.6 105 100.2 77.5
118.413 100.2 91.587 103.6 105 100.2 77.7
117.829 100.2 92.171 103.6 105 100.2 77.9
117.244 100.2 92.756 103.6 105 100.2 78.1
116.66 100.2 93.34 103.6 105 100.2 78.3
115.949 100.2 94.051 103.6 105 100.2 78.5
115.225 100.2 94.775 103.6 105 100.2 78.7
114.501 100.2 95.499 103.6 105 100.2 78.9
113.623 100.2 96.377 103.6 105 100.2 79.1
112.684 100.2 97.316 103.6 105 100.2 79.3
111.659 100.2 98.341 103.6 105 100.2 79.5
110.332 100.2 99.668 103.6 105 100.2 79.7
108.616 100.2 101.384 103.6 105 100.2 79.9
